ncols 420
nrows 26
xllcorner 2696363
yllcorner 1228957
cellsize 1
nodata_value -9999
-9999 -9999 -9999 -9999 -9999 -9999 -9999 -9999 -9999 -9999 -9999 -9999 -9999 -9999 -9999 -9999 -9999 -9999 -9999 -9999 -9999 -9999 -9999 -9999 -9999 -9999 -9999 -9999 -9999 -9999 -9999 -9999 -9999 -9999 -9999 -9999 -9999 -9999 -9999 -9999 -9999 -9999 -9999 -9999 -9999 -9999 -9999 -9999 -9999 -9999 -9999 -9999 -9999 -9999 -9999 -9999 -9999 -9999 -9999 -9999 -9999 -9999 -9999 -9999 -9999 -9999 -9999 -9999 -9999 -9999 -9999 -9999 -9999 -9999 -9999 -9999 -9999 -9999 -9999 -9999 -9999 -9999 -9999 -9999 -9999 -9999 -9999 -9999 -9999 -9999 -9999 -9999 -9999 -9999 -9999 -9999 -9999 -9999 -9999 -9999 -9999 -9999 -9999 -9999 -9999 -9999 -9999 -9999 -9999 -9999 -9999 -9999 -9999 -9999 -9999 -9999 -9999 -9999 -9999 -9999 -9999 399.96466 399.70825 399.28076 398.57782 398.08386 397.64496 397.20148 396.858 396.58661 396.42963 396.37262 396.35059 396.40311 396.51208 396.72858 397.02551 397.40204 397.66406 397.7735 397.79401 397.77802 397.74905 397.71906 397.67105 397.61511 397.51361 397.42111 397.33459 397.23212 397.13409 397.02863 396.9007 396.73871 396.56122 396.3862 396.22971 396.11926 396.04431 395.96582 395.89481 395.79779 395.69482 395.58582 395.47632 395.37585 395.25592 395.1149 394.9769 394.85541 394.7774 394.69141 394.62592 394.55991 394.48294 394.39099 394.28351 394.1915 394.09949 393.9935 393.89301 393.78101 393.63403 393.48608 393.32861 393.16809 393.00409 392.82666 392.6492 392.46921 392.27771 392.06824 391.86328 391.6698 391.52582 391.39679 391.27335 391.14734 391.02591 390.91589 390.81989 390.73792 390.6619 390.60089 390.53391 390.46646 390.4115 390.35901 390.3215 390.28448 390.245 390.2135 390.17902 390.15302 390.12701 390.09552 390.06799 390.03949 390.01349 389.98248 389.95453 389.93549 389.909 389.89398 389.875 389.85651 389.8335 389.81549 389.80499 389.78699 389.76648 389.74799 389.72253 389.70703 389.70209 389.68805 389.66705 389.64362 389.63458 389.61462 389.60754 389.59909 389.58459 389.5701 389.5636 389.56259 389.55908 389.5531 389.53961 389.53162 389.52661 389.51511 389.51062 389.50958 389.51611 389.51611 389.5181 389.5206 389.52109 389.5256 389.52258 389.52112 389.52209 389.52362 389.52112 389.53009 389.52811 389.5231 389.5246 389.51959 389.5246 389.5206 389.52008 389.52359 389.52411 389.5321 389.5311 389.53259 389.52859 389.53662 389.5386 389.53558 389.54211 389.5376 389.53412 389.52911 389.52759 389.51559 389.50562 389.49762 389.49359 389.4906 389.4841 389.48111 389.4726 389.46509 389.46109 389.46008 389.44809 389.44009 389.43759 389.4371 389.4296 389.41809 389.39661 389.38959 389.37762 389.37012 389.3696 389.37909 389.37262 389.3576 389.3501 389.3486 389.34259 389.3371 389.34009 389.33911 389.34259 389.33411 389.31409 389.30859 389.30762 389.29907 389.28412 389.27411 389.28162 389.27261 389.26309 389.24609 389.23962 389.23959 389.23959 389.2366 389.23859 389.23859 389.23358 389.23959 389.22211 389.20911 389.20062 389.2001 389.19861 389.19565 389.18509 389.17816 389.1781 389.17911 389.1846 389.1846 389.18509 389.1926 389.19708 389.19458 389.1871 389.18262 389.1846 389.19458 389.20111 389.21167 389.20364 389.20364 389.21115 389.2431 389.2496 389.25562 389.26758 389.28558 389.2851 389.29111 389.3031 389.2981 389.30911 389.32709 389.31812 389.33209 389.33661 389.3591 389.37811 389.37909 389.38461 389.4021 389.4111 389.43509 389.4516 389.47961 389.4906 389.50211 389.50562 389.51257 389.52109 389.52808 389.54309 389.5546 389.5831 389.59912 389.61011 389.62408 389.65161 389.67261 389.6926 389.72009 389.75159 389.7796 389.78909 389.81659 389.85159 389.91461 389.9516 389.99207 390.03607 390.07202 390.10101 390.15601 390.21802 390.27698 390.36902 390.465 390.56549 390.655
-9999 -9999 -9999 -9999 -9999 -9999 -9999 -9999 -9999 -9999 -9999 -9999 -9999 -9999 -9999 -9999 -9999 -9999 -9999 -9999 -9999 -9999 -9999 -9999 -9999 -9999 -9999 -9999 -9999 -9999 -9999 -9999 -9999 -9999 -9999 -9999 -9999 -9999 -9999 -9999 -9999 -9999 -9999 -9999 -9999 -9999 -9999 -9999 -9999 -9999 -9999 -9999 -9999 -9999 -9999 -9999 -9999 -9999 -9999 -9999 -9999 -9999 -9999 -9999 -9999 -9999 -9999 -9999 -9999 -9999 -9999 -9999 -9999 -9999 -9999 -9999 -9999 -9999 -9999 -9999 -9999 -9999 -9999 -9999 -9999 -9999 -9999 -9999 -9999 -9999 -9999 -9999 -9999 -9999 -9999 -9999 -9999 -9999 -9999 -9999 -9999 -9999 -9999 -9999 -9999 -9999 -9999 -9999 -9999 -9999 -9999 -9999 -9999 -9999 -9999 -9999 -9999 -9999 -9999 -9999 -9999 -9999 399.7262 399.40976 398.83679 398.17987 397.47797 397.02805 396.7131 396.55463 396.46661 396.4386 396.4646 396.55859 396.78055 397.00949 397.30402 397.73999 397.81104 397.89951 397.86499 397.84552 397.83051 397.8035 397.7605 397.71899 397.64557 397.58359 397.5246 397.43011 397.34961 397.26309 397.1636 397.00818 396.81512 396.6012 396.42621 396.27026 396.15277 396.0498 395.9743 395.8913 395.8103 395.68378 395.55579 395.4353 395.32129 395.18835 395.0354 394.91388 394.81738 394.73688 394.66492 394.5979 394.52396 394.44348 394.34399 394.25751 394.16299 394.05951 393.96249 393.84302 393.71857 393.57312 393.4346 393.28259 393.12759 392.95764 392.79016 392.61322 392.43069 392.22577 392.01276 391.81281 391.65631 391.51428 391.36432 391.23636 391.1174 391.00839 390.90588 390.81842 390.73889 390.65491 390.58496 390.52396 390.46503 390.40601 390.35901 390.31952 390.289 390.25549 390.2265 390.20099 390.17151 390.14349 390.10748 390.08398 390.056 390.022 390 389.97699 389.9585 389.9375 389.918 389.897 389.87451 389.85602 389.83701 389.8205 389.80301 389.78302 389.76501 389.74957 389.74207 389.72855 389.70105 389.68961 389.67303 389.65851 389.6521 389.63611 389.62158 389.6091 389.60461 389.59412 389.5881 389.58411 389.5766 389.56708 389.55658 389.5506 389.5466 389.54858 389.5506 389.5556 389.55411 389.55011 389.55609 389.5546 389.55261 389.5531 389.5571 389.55212 389.55161 389.5556 389.5506 389.5481 389.5441 389.54358 389.5556 389.5546 389.55658 389.5571 389.56158 389.5596 389.56461 389.5676 389.57062 389.55661 389.56409 389.56259 389.56461 389.56409 389.56061 389.55658 389.5481 389.53558 389.5271 389.5191 389.51361 389.5061 389.50461 389.49957 389.49359 389.48907 389.49011 389.47461 389.4646 389.46008 389.4671 389.45459 389.44458 389.42209 389.41711 389.41461 389.40759 389.39709 389.38757 389.38559 389.3746 389.36511 389.37109 389.36658 389.36462 389.3551 389.34711 389.34412 389.33508 389.33362 389.32959 389.3226 389.31711 389.30762 389.2941 389.28009 389.2836 389.2876 389.2666 389.25861 389.2551 389.2536 389.2486 389.2421 389.24512 389.2446 389.23911 389.2341 389.2186 389.2186 389.19958 389.1926 389.19965 389.1987 389.1922 389.19409 389.19458 389.18658 389.18359 389.18616 389.18658 389.19211 389.20261 389.19815 389.2012 389.19714 389.20215 389.20667 389.2117 389.2157 389.21515 389.22165 389.23465 389.24759 389.26361 389.27209 389.27661 389.28613 389.29108 389.30109 389.29608 389.3071 389.32111 389.31262 389.33112 389.34061 389.35461 389.3696 389.38409 389.39063 389.4086 389.40558 389.42108 389.43909 389.4606 389.48059 389.49811 389.50812 389.52811 389.52811 389.53412 389.54709 389.56409 389.58661 389.60159 389.6091 389.62512 389.6431 389.65359 389.6731 389.69611 389.7226 389.75061 389.7861 389.80411 389.84009 389.8826 389.9176 389.96054 390.00705 390.0491 390.07605 390.12848 390.18152 390.23749 390.3165 390.401 390.48248 390.58649 390.68549
-9999 -9999 -9999 -9999 -9999 -9999 -9999 -9999 -9999 -9999 -9999 -9999 -9999 -9999 -9999 -9999 -9999 -9999 -9999 -9999 -9999 -9999 -9999 -9999 -9999 -9999 -9999 -9999 -9999 -9999 -9999 -9999 -9999 -9999 -9999 -9999 -9999 -9999 -9999 -9999 -9999 -9999 -9999 -9999 -9999 -9999 -9999 -9999 -9999 -9999 -9999 -9999 -9999 -9999 -9999 -9999 -9999 -9999 -9999 -9999 -9999 -9999 -9999 -9999 -9999 -9999 -9999 -9999 -9999 -9999 -9999 -9999 -9999 -9999 -9999 -9999 -9999 -9999 -9999 -9999 -9999 -9999 -9999 -9999 -9999 -9999 -9999 -9999 -9999 -9999 -9999 -9999 -9999 -9999 -9999 -9999 -9999 -9999 -9999 -9999 -9999 -9999 -9999 -9999 -9999 -9999 -9999 -9999 -9999 -9999 -9999 -9999 -9999 -9999 -9999 -9999 -9999 -9999 -9999 -9999 -9999 -9999 399.75421 399.47171 398.8638 398.05688 397.3725 396.96704 396.73804 396.5936 396.53058 396.54211 396.58862 396.78058 397.00049 397.30048 397.68295 397.93494 398.026 397.974 397.93549 397.89899 397.88348 397.85602 397.82455 397.79407 397.75204 397.7056 397.65912 397.60059 397.5416 397.4791 397.41211 397.25708 397.07166 396.85516 396.62921 396.4267 396.2692 396.13818 396.05325 395.96979 395.89029 395.77081 395.6438 395.51434 395.40836 395.27734 395.14136 394.99438 394.87189 394.7814 394.7149 394.63989 394.55951 394.48096 394.39749 394.31201 394.22601 394.12598 394.017 393.90451 393.78555 393.66357 393.53204 393.3866 393.2341 393.08011 392.91217 392.74469 392.5657 392.36569 392.16473 391.96979 391.8028 391.63129 391.46881 391.32837 391.21136 391.10291 390.9989 390.9054 390.82089 390.72742 390.64941 390.57294 390.50897 390.45599 390.40649 390.37549 390.33951 390.30249 390.26849 390.24249 390.211 390.17651 390.15051 390.129 390.10248 390.07648 390.05051 390.02148 390.00098 389.978 389.95898 389.939 389.9155 389.89551 389.87149 389.858 389.8475 389.82349 389.80157 389.79254 389.78302 389.76904 389.74609 389.73962 389.72055 389.70511 389.68811 389.67358 389.6691 389.65912 389.64508 389.63458 389.6301 389.62012 389.61108 389.6041 389.5946 389.58911 389.58508 389.5946 389.5936 389.5896 389.5856 389.58459 389.58261 389.5856 389.58661 389.58859 389.58008 389.58209 389.58508 389.5856 389.5806 389.5806 389.57709 389.58411 389.58209 389.58459 389.5856 389.58759 389.58859 389.5831 389.58661 389.58612 389.57611 389.57861 389.57208 389.5791 389.58508 389.5726 389.5686 389.57159 389.5621 389.5596 389.55359 389.55759 389.5441 389.5311 389.52808 389.53061 389.52509 389.51709 389.50958 389.49561 389.48859 389.49261 389.48358 389.47409 389.46008 389.4501 389.4386 389.4281 389.42261 389.4101 389.4061 389.3981 389.3876 389.38809 389.39008 389.39111 389.37659 389.35962 389.35461 389.35059 389.34961 389.34009 389.33661 389.33508 389.33258 389.3201 389.3056 389.29712 389.28809 389.28659 389.27112 389.27258 389.26611 389.2616 389.2536 389.2486 389.25009 389.24515 389.24609 389.2381 389.23358 389.23059 389.2186 389.20758 389.20758 389.20764 389.2056 389.20615 389.20261 389.19708 389.19116 389.19116 389.19464 389.20209 389.20111 389.22009 389.2066 389.20966 389.21359 389.21466 389.21771 389.2247 389.22009 389.22964 389.23764 389.2482 389.26111 389.26514 389.27222 389.27161 389.29059 389.29761 389.31213 389.3266 389.33362 389.3371 389.35309 389.34311 389.3476 389.36609 389.37659 389.3996 389.4166 389.41711 389.4306 389.44861 389.4646 389.48059 389.4931 389.52112 389.5386 389.54059 389.5466 389.5611 389.58258 389.59412 389.6051 389.60858 389.62561 389.6521 389.6691 389.69159 389.71609 389.72659 389.75211 389.79059 389.82809 389.86459 389.90662 389.9361 389.97156 390.01511 390.04553 390.09198 390.15555 390.21851 390.284 390.34149 390.41699 390.50549 390.60001 390.68051
-9999 -9999 -9999 -9999 -9999 -9999 -9999 -9999 -9999 -9999 -9999 -9999 -9999 -9999 -9999 -9999 -9999 -9999 -9999 -9999 -9999 -9999 -9999 -9999 -9999 -9999 -9999 -9999 -9999 -9999 -9999 -9999 -9999 -9999 -9999 -9999 -9999 -9999 -9999 -9999 -9999 -9999 -9999 -9999 -9999 -9999 -9999 -9999 -9999 -9999 -9999 -9999 -9999 -9999 -9999 -9999 -9999 -9999 -9999 -9999 -9999 -9999 -9999 -9999 -9999 -9999 -9999 -9999 -9999 -9999 -9999 -9999 -9999 -9999 -9999 -9999 -9999 -9999 -9999 -9999 -9999 -9999 -9999 -9999 -9999 -9999 -9999 -9999 -9999 -9999 -9999 -9999 -9999 -9999 -9999 -9999 -9999 -9999 -9999 -9999 -9999 -9999 -9999 -9999 -9999 -9999 -9999 -9999 -9999 -9999 -9999 -9999 -9999 -9999 -9999 -9999 -9999 -9999 -9999 -9999 -9999 -9999 399.7677 399.35324 398.82031 398.15741 397.60394 397.18649 396.93958 396.75354 396.62711 396.6731 396.7926 396.94647 397.15948 397.4205 397.80396 398.12897 398.00049 398.02701 397.9895 397.95099 397.91602 397.90051 397.8735 397.8595 397.82153 397.79504 397.7641 397.71857 397.67661 397.6301 397.59509 397.4726 397.31012 397.09467 396.84665 396.61218 396.42468 396.25476 396.14478 396.0463 395.95728 395.85181 395.72382 395.5993 395.4873 395.3808 395.23737 395.08588 394.94391 394.84039 394.75739 394.68594 394.6059 394.52344 394.44046 394.35901 394.27301 394.17001 394.06201 393.9635 393.85455 393.73999 393.62109 393.48962 393.34558 393.19009 393.03015 392.86771 392.69119 392.51019 392.33325 392.13928 391.94479 391.75031 391.57629 391.44379 391.32184 391.19589 391.0864 390.99438 390.88989 390.7959 390.70639 390.62939 390.57446 390.51898 390.47198 390.43201 390.3855 390.34399 390.31653 390.28799 390.255 390.2215 390.19897 390.17749 390.15399 390.129 390.09698 390.07001 390.04352 390.02002 390.005 389.97998 389.95801 389.94098 389.92651 389.90649 389.88049 389.85855 389.83911 389.83099 389.82111 389.80609 389.79309 389.78156 389.75955 389.74011 389.72559 389.72412 389.70709 389.69159 389.6796 389.67059 389.6626 389.65509 389.6456 389.64111 389.6351 389.6311 389.63458 389.6311 389.63062 389.63611 389.61911 389.61859 389.62061 389.62012 389.61908 389.61011 389.6106 389.60809 389.61359 389.6076 389.60962 389.61511 389.6156 389.61407 389.61261 389.6106 389.61209 389.61261 389.6076 389.6091 389.61511 389.60559 389.60159 389.59912 389.59509 389.60159 389.6001 389.60309 389.59711 389.5936 389.59161 389.59409 389.5976 389.5871 389.57111 389.56061 389.56311 389.55661 389.54462 389.53461 389.52808 389.51758 389.51309 389.51059 389.50708 389.49411 389.4711 389.46259 389.44208 389.43408 389.44061 389.4386 389.42911 389.42108 389.4231 389.42059 389.4136 389.39911 389.37961 389.3681 389.36661 389.3681 389.3656 389.35712 389.3541 389.3551 389.33411 389.3241 389.31812 389.30908 389.3046 389.29211 389.2901 389.28311 389.27362 389.26761 389.2641 389.2576 389.25165 389.25861 389.25708 389.24908 389.2406 389.23215 389.23016 389.22363 389.2211 389.21161 389.21216 389.20966 389.19312 389.19611 389.19513 389.19672 389.20059 389.20059 389.22162 389.2196 389.22064 389.21814 389.21664 389.21216 389.2222 389.2236 389.22565 389.23907 389.24664 389.25809 389.26715 389.26263 389.25659 389.27115 389.29211 389.30365 389.32565 389.33258 389.33612 389.34961 389.35059 389.34558 389.3591 389.3671 389.38461 389.40961 389.4256 389.4346 389.4241 389.43408 389.45709 389.4696 389.49512 389.52509 389.54559 389.55261 389.5611 389.5751 389.59009 389.59912 389.61658 389.63062 389.65259 389.67761 389.70111 389.71912 389.73459 389.7536 389.78061 389.8161 389.85608 389.8891 389.9231 389.9491 389.9881 390.02856 390.06955 390.11957 390.20154 390.26752 390.31702 390.37048 390.4505 390.52249 390.60352 390.7175
-9999 -9999 -9999 -9999 -9999 -9999 -9999 -9999 -9999 -9999 -9999 -9999 -9999 -9999 -9999 -9999 -9999 -9999 -9999 -9999 -9999 -9999 -9999 -9999 -9999 -9999 -9999 -9999 -9999 -9999 -9999 -9999 -9999 -9999 -9999 -9999 -9999 -9999 -9999 -9999 -9999 -9999 -9999 -9999 -9999 -9999 -9999 -9999 -9999 -9999 -9999 -9999 -9999 -9999 -9999 -9999 -9999 -9999 -9999 -9999 -9999 -9999 -9999 -9999 -9999 -9999 -9999 -9999 -9999 -9999 -9999 -9999 -9999 -9999 -9999 -9999 -9999 -9999 -9999 -9999 -9999 -9999 -9999 -9999 -9999 -9999 -9999 -9999 -9999 -9999 -9999 -9999 -9999 -9999 -9999 -9999 -9999 -9999 -9999 -9999 -9999 -9999 -9999 -9999 -9999 -9999 -9999 -9999 -9999 -9999 -9999 -9999 -9999 -9999 -9999 -9999 -9999 -9999 -9999 -9999 -9999 -9999 -9999 399.46277 399.14279 398.60284 398.20837 397.80145 397.42194 397.01904 396.75812 396.7406 396.87402 397.0065 397.20251 397.51099 397.90295 398.07495 398.1925 398.05798 398.01099 397.96051 397.94849 397.9805 397.9465 397.90002 397.87299 397.85504 397.82349 397.7861 397.75507 397.73254 397.72003 397.64557 397.51309 397.31711 397.07166 396.82965 396.61319 396.40668 396.26624 396.13531 396.02231 395.9198 395.80182 395.68182 395.55829 395.4588 395.31934 395.16235 395.03241 394.91138 394.8064 394.73138 394.64838 394.57996 394.508 394.41248 394.306 394.2135 394.1185 394.01898 393.9165 393.81305 393.70361 393.58508 393.46259 393.30511 393.15216 392.98865 392.82269 392.6582 392.48218 392.29269 392.08673 391.9043 391.73279 391.57782 391.42084 391.2944 391.1759 391.07288 390.96289 390.8689 390.77838 390.70538 390.64395 390.58093 390.53046 390.479 390.439 390.40649 390.36499 390.33051 390.29651 390.26898 390.24451 390.2215 390.1955 390.16498 390.13953 390.11249 390.08398 390.06851 390.04651 390.02301 390.00049 389.98199 389.9585 389.93649 389.91602 389.89313 389.88651 389.87405 389.85352 389.8425 389.83252 389.81155 389.79712 389.78003 389.77005 389.75604 389.74109 389.72461 389.7121 389.71954 389.70709 389.69061 389.68311 389.68011 389.67661 389.67261 389.6676 389.66858 389.6731 389.66608 389.6626 389.6561 389.6506 389.64508 389.6431 389.64661 389.6456 389.6441 389.6351 389.64011 389.6481 389.65411 389.64661 389.63959 389.6351 389.63611 389.64008 389.6391 389.64011 389.6481 389.6391 389.63562 389.63861 389.62811 389.62711 389.62561 389.63211 389.64011 389.62561 389.61761 389.62311 389.62512 389.62061 389.6051 389.59912 389.5871 389.57959 389.56711 389.5636 389.55759 389.5466 389.54211 389.53912 389.53809 389.52362 389.50409 389.4921 389.48709 389.47058 389.47409 389.47858 389.46561 389.45111 389.45261 389.4426 389.4306 389.42059 389.40808 389.3931 389.39709 389.40009 389.3956 389.38312 389.3721 389.37061 389.35413 389.3436 389.3356 389.32159 389.3176 389.3201 389.31711 389.30609 389.2941 389.28412 389.2771 389.27115 389.25958 389.2576 389.2616 389.25867 389.25317 389.24765 389.2431 389.25067 389.24213 389.2326 389.2236 389.2222 389.2041 389.20364 389.20416 389.20215 389.19965 389.20059 389.20465 389.21365 389.21521 389.21667 389.21918 389.21613 389.22266 389.23212 389.22021 389.22662 389.24759 389.26257 389.27365 389.27765 389.26511 389.2652 389.28058 389.3046 389.32565 389.31561 389.31665 389.32559 389.3526 389.3616 389.37109 389.37659 389.38361 389.4071 389.42462 389.4166 389.42657 389.44009 389.43909 389.4566 389.46811 389.49957 389.52661 389.5506 389.56458 389.57159 389.5831 389.59808 389.60809 389.63062 389.64862 389.6676 389.69659 389.7146 389.73511 389.75812 389.78412 389.8136 389.8476 389.8826 389.90909 389.93408 389.95508 389.99655 390.04053 390.09805 390.1601 390.23456 390.30652 390.35651 390.418 390.47198 390.548 390.6535 390.776
-9999 -9999 -9999 -9999 -9999 -9999 -9999 -9999 -9999 -9999 -9999 -9999 -9999 -9999 -9999 -9999 -9999 -9999 -9999 -9999 -9999 -9999 -9999 -9999 -9999 -9999 -9999 -9999 -9999 -9999 -9999 -9999 -9999 -9999 -9999 -9999 -9999 -9999 -9999 -9999 -9999 -9999 -9999 -9999 -9999 -9999 -9999 -9999 -9999 -9999 -9999 -9999 -9999 -9999 -9999 -9999 -9999 -9999 -9999 -9999 -9999 -9999 -9999 -9999 -9999 -9999 -9999 -9999 -9999 -9999 -9999 -9999 -9999 -9999 -9999 -9999 -9999 -9999 -9999 -9999 -9999 -9999 -9999 -9999 -9999 -9999 -9999 -9999 -9999 -9999 -9999 -9999 -9999 -9999 -9999 -9999 -9999 -9999 -9999 -9999 -9999 -9999 -9999 -9999 -9999 -9999 -9999 -9999 -9999 -9999 -9999 -9999 -9999 -9999 -9999 -9999 -9999 -9999 -9999 -9999 -9999 -9999 -9999 -9999 399.53024 399.34125 398.96979 398.45935 397.96689 397.30902 396.92905 396.91156 396.96805 397.15198 397.28302 397.427 397.57895 397.77698 397.89453 398.0415 398.06201 398.00201 397.9845 398.10599 398.01501 397.96851 397.90399 397.88651 397.87 397.85205 397.84198 397.828 397.81549 397.75705 397.65759 397.49512 397.2836 397.0611 396.8382 396.63171 396.41721 396.23724 396.09631 395.99432 395.89429 395.78381 395.66028 395.52478 395.37878 395.24484 395.1149 394.9744 394.86938 394.78741 394.70239 394.62451 394.53894 394.44345 394.35248 394.26001 394.17499 394.078 393.98248 393.88049 393.78006 393.67108 393.54858 393.41962 393.2641 393.11108 392.9537 392.7847 392.6167 392.42719 392.25568 392.0708 391.87183 391.68982 391.52728 391.39285 391.27435 391.1554 391.0419 390.9454 390.85992 390.77939 390.70541 390.6424 390.58044 390.53448 390.49649 390.45251 390.41199 390.37799 390.34399 390.3165 390.289 390.26752 390.2345 390.20999 390.18298 390.15601 390.12952 390.1105 390.091 390.07001 390.04001 390.02002 389.99652 389.97949 389.961 389.94104 389.92902 389.91351 389.89551 389.88452 389.87299 389.85361 389.83954 389.81903 389.80951 389.79449 389.77954 389.76309 389.75455 389.76056 389.74408 389.73108 389.7291 389.7261 389.7171 389.71112 389.70261 389.69958 389.69409 389.6936 389.69009 389.6821 389.67462 389.66962 389.67212 389.67511 389.67261 389.67108 389.67511 389.68011 389.6806 389.68262 389.67709 389.67108 389.6666 389.6651 389.6716 389.67261 389.67212 389.67459 389.67059 389.66711 389.65961 389.66412 389.65509 389.65259 389.6586 389.66461 389.65009 389.64661 389.6456 389.6481 389.64261 389.63159 389.62161 389.60962 389.59509 389.58508 389.59308 389.5766 389.5701 389.56708 389.56409 389.55109 389.53809 389.52911 389.51611 389.5166 389.5036 389.50708 389.50562 389.48761 389.47412 389.46811 389.45612 389.44611 389.4361 389.43259 389.42712 389.42059 389.40912 389.4061 389.39661 389.38559 389.3786 389.3681 389.3541 389.34662 389.34009 389.33112 389.33362 389.33112 389.31512 389.3096 389.30115 389.28412 389.26971 389.25815 389.25659 389.26111 389.26263 389.27222 389.25565 389.2431 389.25067 389.2562 389.24359 389.23413 389.2262 389.22113 389.21564 389.21613 389.21109 389.20419 389.20563 389.2077 389.21814 389.22314 389.22464 389.23315 389.22968 389.22311 389.23065 389.2312 389.24567 389.2666 389.26059 389.2677 389.28165 389.27362 389.2807 389.2941 389.31812 389.32361 389.31512 389.3212 389.32361 389.34161 389.36859 389.37811 389.3876 389.40009 389.4151 389.41412 389.41516 389.42609 389.43961 389.45508 389.46411 389.47913 389.50809 389.53061 389.56262 389.5766 389.58859 389.59558 389.61212 389.62262 389.64063 389.66611 389.68512 389.70361 389.72159 389.7446 389.77811 389.81259 389.83661 389.87061 389.8931 389.92108 389.95209 389.97461 390.01709 390.0481 390.10559 390.18457 390.25208 390.3335 390.40601 390.46552 390.5325 390.60852 390.70251 390.82999
-9999 -9999 -9999 -9999 -9999 -9999 -9999 -9999 -9999 -9999 -9999 -9999 -9999 -9999 -9999 -9999 -9999 -9999 -9999 -9999 -9999 -9999 -9999 -9999 -9999 -9999 -9999 -9999 -9999 -9999 -9999 -9999 -9999 -9999 -9999 -9999 -9999 -9999 -9999 -9999 -9999 -9999 -9999 -9999 -9999 -9999 -9999 -9999 -9999 -9999 -9999 -9999 -9999 -9999 -9999 -9999 -9999 -9999 -9999 -9999 -9999 -9999 -9999 -9999 -9999 -9999 -9999 -9999 -9999 -9999 -9999 -9999 -9999 -9999 -9999 -9999 -9999 -9999 -9999 -9999 -9999 -9999 -9999 -9999 -9999 -9999 -9999 -9999 -9999 -9999 -9999 -9999 -9999 -9999 -9999 -9999 -9999 -9999 -9999 -9999 -9999 -9999 -9999 -9999 -9999 -9999 -9999 -9999 -9999 -9999 -9999 -9999 -9999 -9999 -9999 -9999 -9999 -9999 -9999 -9999 -9999 -9999 -9999 -9999 -9999 399.84467 399.48074 399.02325 398.46634 397.74796 397.26099 397.11899 397.11749 397.24799 397.40051 397.51401 397.60495 397.66055 397.81207 397.9425 398.0705 398.04749 397.996 398.05701 398.026 397.96198 397.93701 397.91602 397.90305 397.89999 397.89648 397.88397 397.84503 397.7951 397.69708 397.5531 397.38458 397.20761 397.02866 396.84369 396.65222 396.45422 396.27774 396.12576 395.99829 395.88928 395.7753 395.6528 395.50531 395.35535 395.21039 395.0614 394.95239 394.8414 394.74789 394.65546 394.56738 394.49597 394.405 394.31702 394.23001 394.13751 394.04248 393.94299 393.8515 393.7431 393.63007 393.50708 393.36859 393.22809 393.07715 392.91364 392.7417 392.57068 392.40417 392.21924 392.02881 391.8418 391.6698 391.49829 391.35938 391.24435 391.14191 391.03589 390.94489 390.85989 390.77841 390.70538 390.6445 390.59393 390.54602 390.49896 390.4585 390.423 390.3905 390.36499 390.3385 390.31702 390.28302 390.254 390.229 390.20001 390.17749 390.15601 390.13251 390.1145 390.0885 390.06403 390.04352 390.02701 390.00699 389.98849 389.9715 389.95551 389.94 389.92798 389.90802 389.89606 389.87805 389.86456 389.849 389.83203 389.81903 389.8006 389.79456 389.79053 389.77859 389.77209 389.77161 389.76611 389.76208 389.75012 389.74261 389.7406 389.7301 389.72409 389.7196 389.7081 389.70313 389.70111 389.70709 389.71008 389.70959 389.7066 389.70758 389.71112 389.70862 389.70309 389.70059 389.69861 389.70062 389.70062 389.70062 389.70209 389.70111 389.70209 389.69708 389.69861 389.68909 389.68658 389.6886 389.68658 389.68109 389.68109 389.68161 389.6741 389.6756 389.67459 389.66211 389.6546 389.6416 389.63812 389.61658 389.60608 389.6091 389.6026 389.5961 389.59259 389.57809 389.5676 389.55908 389.55157 389.54059 389.53961 389.5311 389.52811 389.5246 389.5116 389.49908 389.49609 389.47861 389.46509 389.47009 389.47409 389.4621 389.43161 389.4086 389.39859 389.39859 389.4021 389.38812 389.3681 389.3551 389.36212 389.36661 389.35858 389.34717 389.33459 389.32312 389.32013 389.31766 389.3006 389.2782 389.27209 389.26816 389.26764 389.26666 389.27368 389.25916 389.25409 389.25366 389.2522 389.23959 389.23969 389.2327 389.2327 389.22821 389.21967 389.21057 389.21112 389.2142 389.21619 389.22714 389.23315 389.24017 389.25064 389.24567 389.2341 389.2377 389.2482 389.26566 389.27014 389.27808 389.26721 389.26614 389.26611 389.29169 389.30914 389.30609 389.31067 389.31659 389.33313 389.34161 389.34814 389.37061 389.38409 389.38812 389.4046 389.4046 389.41211 389.42267 389.4476 389.45959 389.4726 389.47559 389.49359 389.52258 389.54361 389.57013 389.58258 389.6001 389.61658 389.6246 389.6481 389.65808 389.68262 389.70059 389.72009 389.74261 389.7626 389.79309 389.8371 389.85608 389.88312 389.90662 389.93512 389.96661 389.9971 390.0426 390.07208 390.11661 390.19507 390.25549 390.34 390.42401 390.49249 390.57001 390.65948 390.76001 390.87799
-9999 -9999 -9999 -9999 -9999 -9999 -9999 -9999 -9999 -9999 -9999 -9999 -9999 -9999 -9999 -9999 -9999 -9999 -9999 -9999 -9999 -9999 -9999 -9999 -9999 -9999 -9999 -9999 -9999 -9999 -9999 -9999 -9999 -9999 -9999 -9999 -9999 -9999 -9999 -9999 -9999 -9999 -9999 -9999 -9999 -9999 -9999 -9999 -9999 -9999 -9999 -9999 -9999 -9999 -9999 -9999 -9999 -9999 -9999 -9999 -9999 -9999 -9999 -9999 -9999 -9999 -9999 -9999 -9999 -9999 -9999 -9999 -9999 -9999 -9999 -9999 -9999 -9999 -9999 -9999 -9999 -9999 -9999 -9999 -9999 -9999 -9999 -9999 -9999 -9999 -9999 -9999 -9999 -9999 -9999 -9999 -9999 -9999 -9999 -9999 -9999 -9999 -9999 -9999 -9999 -9999 -9999 -9999 -9999 -9999 -9999 -9999 -9999 -9999 -9999 -9999 -9999 -9999 -9999 -9999 -9999 -9999 -9999 -9999 -9999 -9999 399.82568 399.32227 398.64734 397.95245 397.47949 397.27951 397.2435 397.36603 397.43903 397.4635 397.522 397.63806 397.72656 397.86105 397.98599 398.008 397.96649 397.96948 397.96899 397.97699 397.966 397.94556 397.9375 397.91852 397.90448 397.88007 397.8511 397.79462 397.68408 397.56659 397.44611 397.31158 397.16565 397.00964 396.8407 396.65869 396.47421 396.29175 396.13324 396.00079 395.8898 395.77728 395.63129 395.47284 395.3204 395.15891 395.01288 394.88589 394.78241 394.68988 394.60596 394.534 394.457 394.3685 394.28101 394.1955 394.1055 394.01251 393.91956 393.81799 393.7146 393.59808 393.4726 393.3371 393.20209 393.04663 392.87213 392.7067 392.53821 392.36523 392.17926 391.98431 391.7868 391.60883 391.47131 391.35632 391.2384 391.12839 391.0274 390.93292 390.85391 390.77893 390.71039 390.64746 390.59995 390.54996 390.50452 390.46899 390.44202 390.41449 390.38599 390.35251 390.323 390.29901 390.27451 390.2475 390.22449 390.20001 390.18201 390.159 390.1355 390.11499 390.08899 390.07098 390.0535 390.03198 390.017 390.0065 389.98349 389.96399 389.94952 389.93109 389.91998 389.90057 389.88205 389.87305 389.8576 389.84656 389.83905 389.82761 389.81909 389.81461 389.8096 389.80762 389.7966 389.79205 389.78659 389.77612 389.7691 389.76257 389.75311 389.7431 389.7446 389.75012 389.7511 389.7471 389.7471 389.73761 389.73361 389.73309 389.73059 389.73059 389.73511 389.73608 389.7341 389.73212 389.73059 389.72961 389.7301 389.72461 389.7251 389.72308 389.71411 389.7226 389.7146 389.7016 389.70258 389.7016 389.6991 389.7056 389.6976 389.69061 389.68011 389.67459 389.67462 389.65759 389.6481 389.64059 389.63611 389.62561 389.6261 389.6106 389.59662 389.58911 389.58411 389.5766 389.5686 389.5636 389.55609 389.54761 389.54163 389.52411 389.52209 389.5126 389.49512 389.50061 389.50009 389.49213 389.46362 389.43961 389.42209 389.4201 389.43561 389.41412 389.38812 389.37711 389.37909 389.38861 389.3876 389.37317 389.35608 389.34863 389.3396 389.33466 389.32458 389.31015 389.29761 389.28766 389.28271 389.2807 389.27615 389.27359 389.27515 389.26459 389.26013 389.25262 389.24014 389.2457 389.24069 389.23022 389.23065 389.22766 389.2211 389.21869 389.22321 389.22668 389.23468 389.23517 389.2457 389.25067 389.24915 389.25171 389.25018 389.2547 389.2666 389.27914 389.26764 389.26068 389.25763 389.27771 389.31714 389.32166 389.31067 389.31909 389.32214 389.32159 389.33618 389.35266 389.37509 389.36066 389.38208 389.40308 389.4126 389.41858 389.43463 389.4556 389.4696 389.45416 389.47659 389.5101 389.5256 389.55359 389.58508 389.59711 389.6116 389.61859 389.6481 389.66107 389.6796 389.6991 389.71808 389.74463 389.7641 389.7836 389.82062 389.8461 389.8746 389.90359 389.92712 389.9581 389.99359 390.03009 390.07758 390.11411 390.1586 390.211 390.28052 390.3595 390.44348 390.52448 390.61353 390.716 390.80798 390.92596
-9999 -9999 -9999 -9999 -9999 -9999 -9999 -9999 -9999 -9999 -9999 -9999 -9999 -9999 -9999 -9999 -9999 -9999 -9999 -9999 -9999 -9999 -9999 -9999 -9999 -9999 -9999 -9999 -9999 -9999 -9999 -9999 -9999 -9999 -9999 -9999 -9999 -9999 -9999 -9999 -9999 -9999 -9999 -9999 -9999 -9999 -9999 -9999 -9999 -9999 -9999 -9999 -9999 -9999 -9999 -9999 -9999 -9999 -9999 -9999 -9999 -9999 -9999 -9999 -9999 -9999 -9999 -9999 -9999 -9999 -9999 -9999 -9999 -9999 -9999 -9999 -9999 -9999 -9999 -9999 -9999 -9999 -9999 -9999 -9999 -9999 -9999 -9999 -9999 -9999 -9999 -9999 -9999 -9999 -9999 -9999 -9999 -9999 -9999 -9999 -9999 -9999 -9999 -9999 -9999 -9999 -9999 -9999 -9999 -9999 -9999 -9999 -9999 -9999 -9999 -9999 -9999 -9999 -9999 -9999 -9999 -9999 -9999 -9999 -9999 -9999 399.92169 399.42975 398.74936 398.09845 397.67944 397.4375 397.457 397.46252 397.39099 397.39801 397.51801 397.54956 397.5921 397.72354 397.84406 397.935 397.88501 397.91351 397.95703 398.03149 397.991 397.957 397.93707 397.91254 397.89148 397.86255 397.83459 397.74512 397.64362 397.57208 397.47357 397.3551 397.22357 397.09967 396.96515 396.8132 396.64771 396.4422 396.26776 396.11273 395.98181 395.8533 395.72778 395.57336 395.40686 395.23639 395.07141 394.93539 394.82343 394.73941 394.65845 394.5835 394.50452 394.42047 394.33551 394.24899 394.16351 394.07349 393.98001 393.88556 393.78558 393.67963 393.56158 393.44061 393.31409 393.15961 392.99765 392.8382 392.6712 392.4902 392.29968 392.10626 391.9223 391.74429 391.59277 391.45685 391.33038 391.21838 391.11191 391.0174 390.9259 390.84589 390.77289 390.71295 390.65445 390.60196 390.55798 390.52802 390.49799 390.46249 390.42603 390.397 390.37299 390.34851 390.31848 390.297 390.27197 390.254 390.22949 390.20749 390.1825 390.15552 390.13348 390.1105 390.09399 390.07202 390.061 390.04749 390.02948 390.01202 389.99213 389.97449 389.95752 389.94049 389.93304 389.91907 389.90948 389.89459 389.8811 389.86755 389.86255 389.85211 389.8486 389.84009 389.83704 389.82861 389.82361 389.81708 389.80908 389.7981 389.79059 389.79211 389.79211 389.77609 389.77258 389.77911 389.77411 389.76459 389.76208 389.76361 389.7666 389.77359 389.77759 389.77161 389.76459 389.76761 389.76361 389.75513 389.75262 389.74908 389.75009 389.74762 389.74408 389.74011 389.7341 389.72809 389.73212 389.73108 389.72961 389.72662 389.7341 389.7211 389.71307 389.70911 389.7016 389.70309 389.69708 389.67859 389.6521 389.65109 389.64709 389.63013 389.61859 389.61359 389.60809 389.5976 389.5921 389.58209 389.56659 389.55911 389.54858 389.54413 389.53662 389.5296 389.5256 389.51559 389.5101 389.4931 389.46811 389.4566 389.44812 389.47308 389.45459 389.4216 389.40662 389.40363 389.38617 389.39066 389.39059 389.3851 389.37515 389.36359 389.35114 389.34216 389.33508 389.32111 389.3096 389.28564 389.2872 389.2901 389.2926 389.29214 389.28064 389.27112 389.27219 389.25763 389.26068 389.25018 389.23871 389.23712 389.2402 389.23315 389.22119 389.22321 389.2247 389.22971 389.23218 389.2377 389.2402 389.24072 389.24319 389.24469 389.24271 389.26013 389.26172 389.25818 389.2562 389.26208 389.26862 389.30109 389.3187 389.32062 389.31659 389.31116 389.3096 389.32111 389.33966 389.35516 389.35864 389.37564 389.4006 389.4101 389.41913 389.4227 389.44611 389.46759 389.43372 389.46414 389.49811 389.52209 389.54358 389.58362 389.59558 389.60858 389.61359 389.6441 389.66211 389.6806 389.68811 389.71259 389.74011 389.76062 389.78058 389.80511 389.83362 389.86359 389.89209 389.9216 389.95563 389.9881 390.0231 390.0676 390.1181 390.1521 390.19855 390.25305 390.32251 390.38199 390.46851 390.55801 390.65698 390.7515 390.86652 390.97803
-9999 -9999 -9999 -9999 -9999 -9999 -9999 -9999 -9999 -9999 -9999 -9999 -9999 -9999 -9999 -9999 -9999 -9999 -9999 -9999 -9999 -9999 -9999 -9999 -9999 -9999 -9999 -9999 -9999 -9999 -9999 -9999 -9999 -9999 -9999 -9999 -9999 -9999 -9999 -9999 -9999 -9999 -9999 -9999 -9999 -9999 -9999 -9999 -9999 -9999 -9999 -9999 -9999 -9999 -9999 -9999 -9999 -9999 -9999 -9999 -9999 -9999 -9999 -9999 -9999 -9999 -9999 -9999 -9999 -9999 -9999 -9999 -9999 -9999 -9999 -9999 -9999 -9999 -9999 -9999 -9999 -9999 -9999 -9999 -9999 -9999 -9999 -9999 -9999 -9999 -9999 -9999 -9999 -9999 -9999 -9999 -9999 -9999 -9999 -9999 -9999 -9999 -9999 -9999 -9999 -9999 -9999 -9999 -9999 -9999 -9999 -9999 -9999 -9999 -9999 -9999 -9999 -9999 -9999 -9999 -9999 -9999 -9999 -9999 -9999 -9999 399.9342 399.51276 398.89886 398.30841 397.91995 397.72296 397.6235 397.45551 397.345 397.39001 397.45502 397.48254 397.51959 397.5946 397.6781 397.75903 397.82605 397.89758 397.98151 397.97354 397.95148 397.9281 397.9101 397.90253 397.87305 397.85904 397.79712 397.70612 397.67358 397.58411 397.47711 397.37311 397.26508 397.1626 397.03369 396.90417 396.74219 396.56271 396.3927 396.23022 396.0708 395.92981 395.7948 395.65329 395.47736 395.30542 395.13489 394.98389 394.87039 394.78442 394.69394 394.62 394.55298 394.46649 394.38251 394.30099 394.21649 394.12701 394.03949 393.95056 393.86053 393.76456 393.6571 393.53809 393.41159 393.27362 393.13916 392.9762 392.79919 392.60468 392.42319 392.25574 392.07281 391.8858 391.71381 391.55835 391.43085 391.31189 391.2034 391.0954 391.00241 390.91589 390.84241 390.7854 390.7204 390.66196 390.62549 390.5885 390.54599 390.505 390.47302 390.44949 390.42249 390.3905 390.3645 390.341 390.32452 390.302 390.27551 390.24652 390.2225 390.202 390.17749 390.15802 390.12598 390.112 390.10303 390.08649 390.0665 390.05356 390.03699 390.01654 390.00351 389.99451 389.96552 389.96399 389.95062 389.94205 389.92957 389.91949 389.90662 389.89261 389.8866 389.88257 389.87659 389.86661 389.86411 389.8591 389.85059 389.84009 389.83759 389.8306 389.8186 389.80359 389.80411 389.80762 389.80359 389.7941 389.7991 389.80408 389.80859 389.81012 389.80408 389.79358 389.8006 389.79761 389.78809 389.7821 389.78058 389.78259 389.78009 389.77411 389.77112 389.7681 389.76361 389.76459 389.76508 389.75708 389.75562 389.76559 389.7601 389.7511 389.74109 389.73859 389.7381 389.74261 389.7276 389.69958 389.6806 389.67462 389.66461 389.6586 389.64261 389.63611 389.63062 389.6221 389.61261 389.59259 389.58508 389.5766 389.57458 389.5701 389.55762 389.5546 389.54962 389.52661 389.50958 389.49908 389.48358 389.48462 389.5011 389.4816 389.44861 389.4346 389.4371 389.4166 389.39615 389.39258 389.39261 389.39465 389.38861 389.3721 389.36011 389.35358 389.34015 389.33014 389.30609 389.30017 389.3056 389.30414 389.30664 389.2952 389.27667 389.28168 389.27222 389.27618 389.26172 389.25671 389.25317 389.24664 389.24319 389.23169 389.2327 389.23669 389.2272 389.22769 389.2327 389.2352 389.2392 389.24622 389.2417 389.23572 389.2467 389.25623 389.25519 389.25665 389.26215 389.27368 389.27765 389.30072 389.31964 389.31915 389.30865 389.31866 389.33521 389.33807 389.34415 389.36713 389.37869 389.3981 389.41113 389.41608 389.41663 389.44061 389.46661 389.45721 389.46063 389.49408 389.50861 389.52411 389.55157 389.57959 389.60461 389.6181 389.64258 389.6611 389.68011 389.6911 389.70862 389.7316 389.75061 389.77161 389.7941 389.82159 389.8501 389.8761 389.9086 389.94263 389.97412 389.99908 390.04211 390.09412 390.13812 390.17706 390.2301 390.29102 390.34552 390.4115 390.49951 390.59851 390.7045 390.81952 390.918 391.04492
-9999 -9999 -9999 -9999 -9999 -9999 -9999 -9999 -9999 -9999 -9999 -9999 -9999 -9999 -9999 -9999 -9999 -9999 -9999 -9999 -9999 -9999 -9999 -9999 -9999 -9999 -9999 -9999 -9999 -9999 -9999 -9999 -9999 -9999 -9999 -9999 -9999 -9999 -9999 -9999 -9999 -9999 -9999 -9999 -9999 -9999 -9999 -9999 -9999 -9999 -9999 -9999 -9999 -9999 -9999 -9999 -9999 -9999 -9999 -9999 -9999 -9999 -9999 -9999 -9999 -9999 -9999 -9999 -9999 -9999 -9999 -9999 -9999 -9999 -9999 -9999 -9999 -9999 -9999 -9999 -9999 -9999 -9999 -9999 -9999 -9999 -9999 -9999 -9999 -9999 -9999 -9999 -9999 -9999 -9999 -9999 -9999 -9999 -9999 -9999 -9999 -9999 -9999 -9999 -9999 -9999 -9999 -9999 -9999 -9999 -9999 -9999 -9999 -9999 -9999 -9999 -9999 -9999 -9999 -9999 -9999 -9999 -9999 -9999 -9999 -9999 -9999 399.64026 399.1163 398.66736 398.27591 397.96094 397.67993 397.43298 397.34601 397.37201 397.42151 397.49506 397.54559 397.56012 397.61609 397.70309 397.77859 397.81805 397.87759 397.89505 397.89453 397.89911 397.88504 397.8721 397.85754 397.81509 397.75159 397.72357 397.6571 397.56461 397.4816 397.3941 397.30762 397.19315 397.07166 396.94818 396.80621 396.65869 396.5072 396.34973 396.18774 396.02332 395.8718 395.7128 395.54636 395.37689 395.2074 395.04688 394.92139 394.82941 394.73938 394.6604 394.58997 394.51099 394.431 394.35699 394.27301 394.19098 394.103 394.02249 393.93903 393.84656 393.73859 393.6261 393.51111 393.40411 393.25964 393.10413 392.92365 392.7457 392.57819 392.41824 392.22375 392.03131 391.84631 391.67831 391.53085 391.40585 391.28888 391.18542 391.08139 390.99139 390.9184 390.85089 390.7869 390.73694 390.6875 390.63644 390.582 390.54251 390.51801 390.49701 390.46301 390.43201 390.41101 390.3905 390.37 390.345 390.31549 390.28751 390.27148 390.25351 390.22748 390.20148 390.1785 390.16553 390.1485 390.12549 390.10699 390.09552 390.0795 390.04306 390.043 390.0275 390.01599 390.00061 389.9975 389.98157 389.974 389.96259 389.94159 389.93604 389.92905 389.9241 389.9151 389.91211 389.90912 389.9021 389.8941 389.88611 389.8671 389.86108 389.84662 389.84308 389.84509 389.84558 389.83609 389.8331 389.8371 389.84061 389.83859 389.83459 389.82809 389.82062 389.8241 389.81909 389.81509 389.8111 389.8111 389.81262 389.8111 389.80359 389.79858 389.80109 389.7981 389.7981 389.78961 389.78162 389.77759 389.7861 389.7746 389.76862 389.76959 389.76511 389.78259 389.7601 389.7341 389.72058 389.70209 389.69312 389.69159 389.6756 389.6676 389.65961 389.6571 389.64362 389.6261 389.6171 389.61108 389.6026 389.5946 389.58258 389.57861 389.57111 389.55511 389.53259 389.5246 389.52258 389.53009 389.5231 389.50009 389.4696 389.4631 389.4556 389.43262 389.40915 389.40515 389.40259 389.3927 389.39612 389.38965 389.37561 389.37061 389.36218 389.3512 389.34164 389.32861 389.32559 389.31818 389.31369 389.30264 389.2977 389.2952 389.2822 389.28918 389.28821 389.27618 389.2742 389.27118 389.26221 389.24121 389.2442 389.24469 389.2337 389.22519 389.2287 389.23569 389.2417 389.25769 389.25171 389.24219 389.2482 389.2507 389.25269 389.27911 389.26971 389.26971 389.2702 389.29169 389.30469 389.30069 389.31171 389.32867 389.3497 389.34857 389.33664 389.34967 389.37018 389.38959 389.40771 389.42514 389.42459 389.42566 389.45813 389.46716 389.46515 389.48663 389.50116 389.4996 389.52509 389.55661 389.58459 389.60211 389.63062 389.66061 389.6756 389.68509 389.70612 389.7341 389.74658 389.75909 389.78662 389.8096 389.83661 389.86261 389.89063 389.92511 389.96161 389.9816 390.01709 390.06311 390.1116 390.15656 390.20459 390.26404 390.31549 390.38348 390.466 390.55548 390.65201 390.76199 390.85699 390.97495 391.09143
-9999 -9999 -9999 -9999 -9999 -9999 -9999 -9999 -9999 -9999 -9999 -9999 -9999 -9999 -9999 -9999 -9999 -9999 -9999 -9999 -9999 -9999 -9999 -9999 -9999 -9999 -9999 -9999 -9999 -9999 -9999 -9999 -9999 -9999 -9999 -9999 -9999 -9999 -9999 -9999 -9999 -9999 -9999 -9999 -9999 -9999 -9999 -9999 -9999 -9999 -9999 -9999 -9999 -9999 -9999 -9999 -9999 -9999 -9999 -9999 -9999 -9999 -9999 -9999 -9999 -9999 -9999 -9999 -9999 -9999 -9999 -9999 -9999 -9999 -9999 -9999 -9999 -9999 -9999 -9999 -9999 -9999 -9999 -9999 -9999 -9999 -9999 -9999 -9999 -9999 -9999 -9999 -9999 -9999 -9999 -9999 -9999 -9999 -9999 -9999 -9999 -9999 -9999 -9999 -9999 -9999 -9999 -9999 -9999 -9999 -9999 -9999 -9999 -9999 -9999 -9999 -9999 -9999 -9999 -9999 -9999 -9999 -9999 -9999 -9999 -9999 -9999 399.8002 399.45422 399.05081 398.64886 398.26691 397.86346 397.52301 397.35449 397.35699 397.43201 397.52954 397.55811 397.54962 397.5946 397.65558 397.6911 397.75208 397.81012 397.83554 397.8866 397.8515 397.8381 397.84109 397.80762 397.76208 397.70609 397.66913 397.61661 397.55011 397.4816 397.4086 397.31812 397.20612 397.09714 396.9837 396.8667 396.73621 396.60019 396.4437 396.26227 396.08881 395.9408 395.7728 395.61237 395.45935 395.27991 395.11438 394.98291 394.8754 394.78546 394.70599 394.63202 394.55548 394.48248 394.41101 394.33749 394.24402 394.16101 394.086 394.00049 393.91504 393.81262 393.7066 393.60611 393.49561 393.36407 393.21609 393.04471 392.8797 392.72269 392.54871 392.36475 392.17575 391.9848 391.8013 391.63629 391.49683 391.38141 391.26889 391.16089 391.06989 390.99042 390.91791 390.85388 390.79694 390.73938 390.673 390.62701 390.59351 390.56952 390.54248 390.51251 390.49048 390.46399 390.44 390.4155 390.39001 390.36249 390.34149 390.32251 390.29651 390.28 390.25452 390.24051 390.21948 390.19699 390.1745 390.15851 390.14999 390.10855 390.09448 390.0965 390.082 390.06305 390.0495 390.03806 390.02356 390.01154 389.99603 389.98499 389.97906 389.9696 389.95905 389.95511 389.95355 389.94659 389.94562 389.93512 389.91962 389.91309 389.90112 389.88959 389.8876 389.88708 389.88559 389.87759 389.8721 389.87012 389.8721 389.87262 389.86761 389.85712 389.8526 389.85211 389.8446 389.8476 389.84109 389.8381 389.8381 389.8356 389.83112 389.83209 389.8331 389.82709 389.82208 389.8176 389.80762 389.81009 389.80261 389.79959 389.79858 389.7991 389.80609 389.7926 389.7681 389.75409 389.7421 389.74408 389.72961 389.71509 389.70508 389.69861 389.68909 389.6716 389.65912 389.65311 389.64612 389.63361 389.62408 389.61261 389.6026 389.60059 389.58661 389.56259 389.5531 389.56561 389.58008 389.5661 389.54559 389.50809 389.49359 389.47308 389.4501 389.43115 389.43265 389.42911 389.40216 389.40112 389.39764 389.39166 389.38965 389.38965 389.37665 389.35815 389.35165 389.34613 389.33862 389.33014 389.31659 389.31219 389.30518 389.3002 389.30219 389.3002 389.29269 389.2847 389.28418 389.2742 389.25922 389.25269 389.2532 389.24521 389.24069 389.23969 389.23969 389.24371 389.2532 389.25519 389.24921 389.25571 389.25818 389.25269 389.28064 389.28168 389.26569 389.2717 389.28967 389.29871 389.2897 389.30267 389.32172 389.34119 389.35266 389.33472 389.33865 389.3627 389.37317 389.39221 389.42114 389.44116 389.44116 389.45563 389.46716 389.46915 389.47815 389.4892 389.50159 389.5166 389.54761 389.57361 389.5871 389.61411 389.64612 389.66711 389.6731 389.70111 389.73712 389.75311 389.7626 389.77911 389.8031 389.82458 389.85611 389.88312 389.91559 389.9476 389.97308 390.0051 390.04559 390.08612 390.1416 390.18658 390.24359 390.29407 390.353 390.431 390.51251 390.60101 390.70599 390.79749 390.896 390.9935 391.10846
-9999 -9999 -9999 -9999 -9999 -9999 -9999 -9999 -9999 -9999 -9999 -9999 -9999 -9999 -9999 -9999 -9999 -9999 -9999 -9999 -9999 -9999 -9999 -9999 -9999 -9999 -9999 -9999 -9999 -9999 -9999 -9999 -9999 -9999 -9999 -9999 -9999 -9999 -9999 -9999 -9999 -9999 -9999 -9999 -9999 -9999 -9999 -9999 -9999 -9999 -9999 -9999 -9999 -9999 -9999 -9999 -9999 -9999 -9999 -9999 -9999 -9999 -9999 -9999 -9999 -9999 -9999 -9999 -9999 -9999 -9999 -9999 -9999 -9999 -9999 -9999 -9999 -9999 -9999 -9999 -9999 -9999 -9999 -9999 -9999 -9999 -9999 -9999 -9999 -9999 -9999 -9999 -9999 -9999 -9999 -9999 -9999 -9999 -9999 -9999 -9999 -9999 -9999 -9999 -9999 -9999 -9999 -9999 -9999 -9999 -9999 -9999 -9999 -9999 -9999 -9999 -9999 -9999 -9999 -9999 -9999 -9999 -9999 -9999 -9999 -9999 -9999 -9999 399.88318 399.53577 399.14032 398.60791 398.0289 397.5845 397.36349 397.33249 397.42151 397.54904 397.57159 397.5556 397.56207 397.60959 397.63959 397.68561 397.76111 397.7851 397.81509 397.79358 397.7796 397.7851 397.75159 397.71609 397.6756 397.63409 397.59308 397.53809 397.4776 397.4126 397.33459 397.23361 397.12616 397.01669 396.91919 396.7977 396.6452 396.48969 396.33478 396.1723 395.99829 395.82928 395.67987 395.52335 395.34689 395.1749 395.0329 394.92291 394.83191 394.75244 394.67651 394.59851 394.5285 394.46802 394.39301 394.30353 394.22052 394.1445 394.06598 393.98254 393.88562 393.7851 393.6886 393.58209 393.44708 393.31458 393.16415 393.00519 392.84119 392.67719 392.50269 392.32123 392.12482 391.92432 391.73431 391.58084 391.46039 391.34491 391.2374 391.1394 391.05939 390.98938 390.90839 390.84491 390.7869 390.72845 390.68951 390.6535 390.61902 390.59302 390.56451 390.53851 390.5105 390.4895 390.4585 390.44202 390.4245 390.39551 390.371 390.34552 390.32849 390.30951 390.28799 390.26752 390.2475 390.2265 390.21002 390.19751 390.17499 390.14899 390.14398 390.13098 390.112 390.10248 390.07956 390.06961 390.05905 390.04248 390.02905 390.02802 390.0141 390.00555 389.99655 389.99457 389.9921 389.98212 389.97559 389.9711 389.9581 389.94861 389.93658 389.92661 389.92059 389.92059 389.91559 389.90662 389.90558 389.9021 389.89911 389.89758 389.89258 389.8866 389.88458 389.87659 389.87909 389.87061 389.86859 389.86411 389.86609 389.86261 389.8606 389.8606 389.8551 389.84961 389.84308 389.84308 389.83911 389.83508 389.8186 389.81711 389.8176 389.81158 389.81311 389.79608 389.78058 389.77911 389.77509 389.76312 389.7421 389.73212 389.73059 389.73761 389.70612 389.6846 389.67712 389.6636 389.6546 389.64911 389.63208 389.62311 389.62061 389.60809 389.61609 389.61359 389.59259 389.5896 389.5766 389.55908 389.52161 389.4996 389.47961 389.46912 389.46115 389.44809 389.43817 389.42459 389.41217 389.41266 389.41663 389.40915 389.40015 389.38666 389.37564 389.36768 389.36218 389.35309 389.34412 389.32764 389.30621 389.30164 389.30768 389.30914 389.29221 389.29218 389.28967 389.28168 389.27319 389.26871 389.26068 389.26569 389.2572 389.24768 389.25171 389.25171 389.2482 389.2547 389.2572 389.25571 389.26019 389.24768 389.25671 389.27368 389.27771 389.2832 389.29022 389.29718 389.30319 389.3042 389.30121 389.32071 389.33521 389.3447 389.34619 389.35019 389.3602 389.37372 389.39771 389.42316 389.44568 389.46359 389.46664 389.48016 389.48511 389.49658 389.49866 389.52008 389.5426 389.57062 389.58112 389.6131 389.62958 389.65161 389.6781 389.68961 389.71161 389.74512 389.7731 389.78461 389.7981 389.82312 389.84711 389.87811 389.90912 389.9371 389.97009 390.00458 390.04361 390.07559 390.11761 390.1741 390.21759 390.26761 390.32706 390.38251 390.45752 390.55151 390.65198 390.74402 390.83398 390.93799 391.03748 391.16394
-9999 -9999 -9999 -9999 -9999 -9999 -9999 -9999 -9999 -9999 -9999 -9999 -9999 -9999 -9999 -9999 -9999 -9999 -9999 -9999 -9999 -9999 -9999 -9999 -9999 -9999 -9999 -9999 -9999 -9999 -9999 -9999 -9999 -9999 -9999 -9999 -9999 -9999 -9999 -9999 -9999 -9999 -9999 -9999 -9999 -9999 -9999 -9999 -9999 -9999 -9999 -9999 -9999 -9999 -9999 -9999 -9999 -9999 -9999 -9999 -9999 -9999 -9999 -9999 -9999 -9999 -9999 -9999 -9999 -9999 -9999 -9999 -9999 -9999 -9999 -9999 -9999 -9999 -9999 -9999 -9999 -9999 -9999 -9999 -9999 -9999 -9999 -9999 -9999 -9999 -9999 -9999 -9999 -9999 -9999 -9999 -9999 -9999 -9999 -9999 -9999 -9999 -9999 -9999 -9999 -9999 -9999 -9999 -9999 -9999 -9999 -9999 -9999 -9999 -9999 -9999 -9999 -9999 -9999 -9999 -9999 -9999 -9999 -9999 -9999 -9999 -9999 -9999 -9999 399.86325 399.48926 398.95331 398.30634 397.87445 397.55402 397.38647 397.4245 397.56705 397.59808 397.5816 397.59412 397.57361 397.58661 397.63208 397.69159 397.74011 397.7431 397.74762 397.72461 397.70508 397.68759 397.66711 397.64111 397.60809 397.57111 397.5206 397.4646 397.40613 397.34808 397.2536 397.14716 397.05121 396.96671 396.83319 396.6727 396.5242 396.38074 396.2298 396.05231 395.8808 395.73083 395.56934 395.40741 395.2334 395.08789 394.97192 394.87988 394.78894 394.71301 394.64801 394.57599 394.50751 394.43701 394.36499 394.29352 394.2085 394.12949 394.04355 393.95206 393.85355 393.76459 393.6626 393.52661 393.40009 393.26361 393.12115 392.96667 392.8002 392.63019 392.46225 392.27081 392.06732 391.87231 391.69086 391.5434 391.42191 391.3179 391.21692 391.13239 391.0629 390.9744 390.89789 390.83838 390.7934 390.74939 390.71643 390.67749 390.6355 390.60797 390.58051 390.5545 390.53052 390.50598 390.48999 390.478 390.44901 390.41901 390.39801 390.37701 390.35797 390.33249 390.31348 390.29498 390.267 390.25702 390.24301 390.22198 390.2005 390.19202 390.17551 390.15552 390.1485 390.138 390.11658 390.10605 390.08948 390.07709 390.0715 390.06055 390.05109 390.04355 390.03412 390.02805 390.0191 390.01758 390.00812 390.0011 389.98761 389.97809 389.96661 389.9606 389.9556 389.94458 389.94312 389.94159 389.93408 389.92609 389.9241 389.9216 389.92111 389.91711 389.91309 389.91107 389.9021 389.90311 389.90161 389.8941 389.89209 389.8891 389.88708 389.88458 389.87509 389.8736 389.8696 389.85107 389.84659 389.83661 389.83411 389.82758 389.84412 389.83612 389.81708 389.80408 389.80261 389.78558 389.78308 389.7691 389.7576 389.75211 389.7666 389.74561 389.71558 389.6976 389.6846 389.6741 389.66559 389.65359 389.64362 389.6286 389.6236 389.65909 389.6716 389.6246 389.58209 389.56659 389.54712 389.5256 389.50708 389.48911 389.48358 389.48413 389.46307 389.44815 389.44263 389.42764 389.42764 389.43213 389.42709 389.40869 389.39465 389.39618 389.38971 389.37122 389.36871 389.35614 389.34171 389.3277 389.31317 389.31616 389.31567 389.30664 389.2952 389.28967 389.28271 389.28171 389.27121 389.26669 389.2612 389.26172 389.25421 389.2612 389.2652 389.2562 389.2562 389.26169 389.26318 389.26221 389.2442 389.24921 389.27368 389.28271 389.2847 389.29871 389.30322 389.30719 389.3092 389.31268 389.33173 389.33868 389.34369 389.3522 389.3707 389.36969 389.3912 389.41119 389.42569 389.44519 389.45209 389.46216 389.47064 389.49463 389.51959 389.52411 389.5311 389.56659 389.5856 389.58765 389.62109 389.64709 389.6676 389.6886 389.70709 389.7251 389.7421 389.7771 389.79962 389.8186 389.84161 389.86908 389.8996 389.91962 389.95612 389.99658 390.03058 390.06909 390.10608 390.14911 390.19659 390.25208 390.29605 390.36606 390.42999 390.496 390.57898 390.6745 390.771 390.87299 390.9935 391.11349 391.24445
-9999 -9999 -9999 -9999 -9999 -9999 -9999 -9999 -9999 -9999 -9999 -9999 -9999 -9999 -9999 -9999 -9999 -9999 -9999 -9999 -9999 -9999 -9999 -9999 -9999 -9999 -9999 -9999 -9999 -9999 -9999 -9999 -9999 -9999 -9999 -9999 -9999 -9999 -9999 -9999 -9999 -9999 -9999 -9999 -9999 -9999 -9999 -9999 -9999 -9999 -9999 -9999 -9999 -9999 -9999 -9999 -9999 -9999 -9999 -9999 -9999 -9999 -9999 -9999 -9999 -9999 -9999 -9999 -9999 -9999 -9999 -9999 -9999 -9999 -9999 -9999 -9999 -9999 -9999 -9999 -9999 -9999 -9999 -9999 -9999 -9999 -9999 -9999 -9999 -9999 -9999 -9999 -9999 -9999 -9999 -9999 -9999 -9999 -9999 -9999 -9999 -9999 -9999 -9999 -9999 -9999 -9999 -9999 -9999 -9999 -9999 -9999 -9999 -9999 -9999 -9999 -9999 -9999 -9999 -9999 -9999 -9999 -9999 -9999 -9999 -9999 -9999 -9999 -9999 -9999 399.60626 399.19427 398.75183 398.20395 397.81647 397.57401 397.5625 397.53955 397.58612 397.61761 397.60159 397.52859 397.55209 397.58612 397.6076 397.61359 397.66058 397.65411 397.6416 397.64459 397.64362 397.63458 397.6156 397.5871 397.5531 397.50861 397.4566 397.41058 397.35211 397.26166 397.16919 397.09921 396.99121 396.85522 396.71118 396.5592 396.40973 396.25729 396.09381 395.93127 395.76929 395.61935 395.4574 395.28391 395.1344 395.0209 394.92291 394.83694 394.75952 394.68903 394.61902 394.5545 394.48199 394.422 394.34601 394.27051 394.18701 394.10251 394.0145 393.9281 393.84161 393.73657 393.61713 393.4946 393.3696 393.23364 393.08365 392.93069 392.77121 392.59521 392.4137 392.21375 392.00879 391.81134 391.64435 391.51184 391.40887 391.30289 391.2114 391.12039 391.0329 390.96539 390.91791 390.87042 390.8139 390.76895 390.72144 390.6875 390.66052 390.63202 390.60498 390.57898 390.55548 390.54401 390.52301 390.49301 390.46802 390.44901 390.42749 390.40302 390.38049 390.35849 390.33002 390.314 390.30048 390.2865 390.2645 390.25 390.23999 390.1875 390.18652 390.1915 390.17801 390.1575 390.1445 390.13654 390.121 390.11401 390.10748 390.09552 390.08255 390.07251 390.06305 390.05762 390.05054 390.0441 390.0351 390.0246 390.01453 390.00909 390.00009 389.97412 389.9726 389.9751 389.97058 389.96259 389.9606 389.95862 389.96863 389.96161 389.94611 389.9451 389.94312 389.93909 389.93909 389.93011 389.92657 389.9256 389.92059 389.91711 389.91309 389.91211 389.90411 389.89459 389.8941 389.8786 389.8696 389.8606 389.87259 389.87512 389.8576 389.84363 389.83411 389.82861 389.81909 389.80511 389.78961 389.7861 389.7666 389.76208 389.75009 389.7326 389.7196 389.70612 389.69458 389.6821 389.6741 389.6521 389.64508 389.6626 389.67462 389.65161 389.6156 389.58459 389.56461 389.55212 389.5376 389.52258 389.5231 389.50409 389.49109 389.47308 389.47113 389.45813 389.42764 389.43817 389.43512 389.42764 389.42459 389.42566 389.42114 389.39221 389.38321 389.3717 389.36469 389.35419 389.35968 389.34418 389.32672 389.31616 389.31464 389.30267 389.2912 389.29471 389.29221 389.27618 389.26569 389.26923 389.2702 389.27319 389.27469 389.27271 389.2627 389.27521 389.26923 389.2627 389.2637 389.25269 389.2637 389.28171 389.29419 389.29221 389.30121 389.30319 389.30768 389.32068 389.32971 389.33722 389.3562 389.36072 389.37671 389.3902 389.40619 389.40918 389.42218 389.4357 389.44513 389.45715 389.47168 389.48767 389.51215 389.52109 389.55264 389.57214 389.58167 389.59015 389.60059 389.62659 389.65015 389.6756 389.7001 389.72308 389.72711 389.75259 389.7901 389.81711 389.83261 389.8511 389.88861 389.9061 389.94708 389.9866 390.01611 390.04309 390.08612 390.12711 390.16711 390.21609 390.27203 390.33612 390.40906 390.47 390.54449 390.6185 390.70599 390.806 390.93201 391.06152 391.18201 391.31641
-9999 -9999 -9999 -9999 -9999 -9999 -9999 -9999 -9999 -9999 -9999 -9999 -9999 -9999 -9999 -9999 -9999 -9999 -9999 -9999 -9999 -9999 -9999 -9999 -9999 -9999 -9999 -9999 -9999 -9999 -9999 -9999 -9999 -9999 -9999 -9999 -9999 -9999 -9999 -9999 -9999 -9999 -9999 -9999 -9999 -9999 -9999 -9999 -9999 -9999 -9999 -9999 -9999 -9999 -9999 -9999 -9999 -9999 -9999 -9999 -9999 -9999 -9999 -9999 -9999 -9999 -9999 -9999 -9999 -9999 -9999 -9999 -9999 -9999 -9999 -9999 -9999 -9999 -9999 -9999 -9999 -9999 -9999 -9999 -9999 -9999 -9999 -9999 -9999 -9999 -9999 -9999 -9999 -9999 -9999 -9999 -9999 -9999 -9999 -9999 -9999 -9999 -9999 -9999 -9999 -9999 -9999 -9999 -9999 -9999 -9999 -9999 -9999 -9999 -9999 -9999 -9999 -9999 -9999 -9999 -9999 -9999 -9999 -9999 -9999 -9999 -9999 -9999 -9999 -9999 399.9252 399.7312 399.22827 398.73035 398.16992 397.86993 397.6265 397.47806 397.5011 397.58557 397.54462 397.5051 397.51111 397.49512 397.5206 397.52612 397.55661 397.5636 397.59061 397.59961 397.6066 397.59808 397.58759 397.56512 397.53162 397.49109 397.43811 397.3891 397.31659 397.2576 397.17816 397.10919 397.02771 396.89771 396.7417 396.58121 396.43127 396.28931 396.13928 395.97278 395.8273 395.66736 395.50739 395.33643 395.19092 395.07141 394.97589 394.89294 394.81799 394.74152 394.67102 394.59399 394.52301 394.46399 394.39502 394.3165 394.23999 394.16199 394.08255 394.00208 393.91656 393.81711 393.70309 393.5856 393.4631 393.3381 393.20816 393.05621 392.8992 392.72769 392.54871 392.35574 392.15131 391.95081 391.76929 391.60934 391.4874 391.37738 391.27838 391.18939 391.11639 391.05438 390.99091 390.93042 390.8699 390.8204 390.77896 390.74051 390.71002 390.6795 390.651 390.63049 390.61401 390.59052 390.5675 390.53851 390.51651 390.50549 390.48297 390.45349 390.42999 390.40399 390.37848 390.362 390.3425 390.32651 390.31451 390.3035 390.27301 390.23901 390.24249 390.23651 390.22198 390.20349 390.1965 390.1785 390.16602 390.15552 390.14355 390.13904 390.13007 390.1185 390.10205 390.09753 390.08759 390.07709 390.07455 390.0665 390.05811 390.0401 390.01862 390.0101 390.0116 390.01208 390.00812 390.0036 389.99512 390.00461 390.00061 389.9906 389.98459 389.9801 389.97412 389.9761 389.97211 389.9621 389.9566 389.95612 389.95361 389.9541 389.94711 389.9411 389.92963 389.9216 389.9151 389.9126 389.90808 389.89758 389.90411 389.8996 389.88409 389.87512 389.87012 389.85962 389.8486 389.82959 389.81961 389.81012 389.7901 389.77661 389.76862 389.7576 389.74359 389.73059 389.7131 389.7016 389.68909 389.68011 389.6691 389.6701 389.6676 389.64011 389.61859 389.59412 389.57861 389.5676 389.5556 389.5571 389.54059 389.5191 389.49658 389.49658 389.48309 389.45364 389.46063 389.4671 389.42963 389.43015 389.44659 389.44513 389.42621 389.40671 389.3902 389.38269 389.36969 389.3847 389.37372 389.34473 389.32568 389.32269 389.31821 389.30771 389.3067 389.30121 389.29221 389.2757 389.2692 389.2847 389.2832 389.2847 389.27869 389.27469 389.27222 389.27667 389.2717 389.26819 389.27472 389.26971 389.27319 389.2962 389.29669 389.3082 389.30768 389.31519 389.3187 389.33069 389.33472 389.3562 389.36322 389.37671 389.39371 389.40271 389.40619 389.4137 389.42322 389.44067 389.45715 389.47516 389.49463 389.50116 389.51614 389.52319 389.54016 389.57065 389.57916 389.59558 389.60461 389.6297 389.6611 389.69061 389.71359 389.71509 389.74658 389.77161 389.8056 389.83411 389.8526 389.8746 389.9086 389.94009 389.97659 390.00061 390.0311 390.06461 390.10361 390.14508 390.1991 390.2511 390.2926 390.37354 390.45551 390.5325 390.5965 390.672 390.74951 390.86249 390.97501 391.11301 391.24847 391.3804
-9999 -9999 -9999 -9999 -9999 -9999 -9999 -9999 -9999 -9999 -9999 -9999 -9999 -9999 -9999 -9999 -9999 -9999 -9999 -9999 -9999 -9999 -9999 -9999 -9999 -9999 -9999 -9999 -9999 -9999 -9999 -9999 -9999 -9999 -9999 -9999 -9999 -9999 -9999 -9999 -9999 -9999 -9999 -9999 -9999 -9999 -9999 -9999 -9999 -9999 -9999 -9999 -9999 -9999 -9999 -9999 -9999 -9999 -9999 -9999 -9999 -9999 -9999 -9999 -9999 -9999 -9999 -9999 -9999 -9999 -9999 -9999 -9999 -9999 -9999 -9999 -9999 -9999 -9999 -9999 -9999 -9999 -9999 -9999 -9999 -9999 -9999 -9999 -9999 -9999 -9999 -9999 -9999 -9999 -9999 -9999 -9999 -9999 -9999 -9999 -9999 -9999 -9999 -9999 -9999 -9999 -9999 -9999 -9999 -9999 -9999 -9999 -9999 -9999 -9999 -9999 -9999 -9999 -9999 -9999 -9999 -9999 -9999 -9999 -9999 -9999 -9999 -9999 -9999 -9999 -9999 400.0802 399.68024 399.19037 398.60785 398.13696 397.71802 397.48105 397.42661 397.4881 397.50812 397.4816 397.42609 397.43262 397.4436 397.45612 397.47662 397.50562 397.5386 397.53558 397.55658 397.5621 397.54059 397.51559 397.48657 397.45361 397.39362 397.32559 397.27563 397.2457 397.18872 397.13116 397.04419 396.9097 396.7627 396.60974 396.4523 396.29883 396.16629 396.0383 395.8898 395.72784 395.5589 395.39539 395.24438 395.12488 395.02441 394.93842 394.8569 394.77896 394.7095 394.63702 394.56549 394.49799 394.43402 394.367 394.28949 394.22 394.14301 394.06403 393.97806 393.88409 393.77863 393.6741 393.55908 393.4371 393.30716 393.17465 393.0242 392.85321 392.67871 392.48523 392.30573 392.1153 391.90228 391.70837 391.56287 391.4574 391.3584 391.28137 391.20038 391.1199 391.04089 390.97888 390.9194 390.87241 390.83841 390.79602 390.76202 390.7345 390.70999 390.68048 390.65649 390.6315 390.61349 390.59201 390.57202 390.55051 390.534 390.50751 390.47498 390.45599 390.4335 390.418 390.3945 390.37549 390.362 390.33249 390.31149 390.306 390.29248 390.28351 390.26648 390.25598 390.23849 390.2135 390.20056 390.18561 390.18405 390.17712 390.17157 390.15857 390.14557 390.12704 390.1196 390.12012 390.11108 390.1066 390.0986 390.0741 390.06259 390.05859 390.0556 390.0491 390.0451 390.0376 390.0311 390.0296 390.02261 390.02011 390.00763 389.9986 390.00461 390.00861 389.99908 389.99359 389.98962 389.98111 389.98212 389.97809 389.97308 389.96811 389.9581 389.9491 389.9411 389.9426 389.93512 389.93109 389.92661 389.91211 389.91058 389.9021 389.88959 389.87958 389.87061 389.8576 389.8526 389.83459 389.81561 389.8031 389.79358 389.7851 389.76758 389.75562 389.74109 389.73358 389.72162 389.7131 389.6976 389.68161 389.66711 389.6496 389.62958 389.61011 389.5961 389.58911 389.58359 389.5676 389.54358 389.5311 389.5206 389.5177 389.50409 389.50009 389.50964 389.47714 389.45966 389.45364 389.46069 389.45114 389.4292 389.41418 389.40771 389.39514 389.38763 389.3822 389.36322 389.35019 389.34171 389.32819 389.32422 389.32019 389.31519 389.31021 389.29669 389.2612 389.27722 389.28619 389.29669 389.29071 389.28519 389.2807 389.26819 389.27472 389.2662 389.27069 389.27771 389.28021 389.2937 389.29718 389.29718 389.31769 389.32971 389.3327 389.3302 389.33972 389.35321 389.3587 389.37122 389.3797 389.39069 389.39471 389.4032 389.41272 389.4277 389.4502 389.46362 389.47772 389.49213 389.50671 389.52167 389.55713 389.56616 389.56815 389.57758 389.59415 389.61816 389.64362 389.66809 389.69708 389.7066 389.71661 389.7536 389.79211 389.8241 389.84711 389.86859 389.89709 389.91858 389.9566 389.9906 390.01111 390.0481 390.09509 390.13208 390.17059 390.2251 390.2666 390.33661 390.41949 390.48901 390.56 390.6315 390.7085 390.8075 390.90851 391.02051 391.16895 391.31241 391.44989
-9999 -9999 -9999 -9999 -9999 -9999 -9999 -9999 -9999 -9999 -9999 -9999 -9999 -9999 -9999 -9999 -9999 -9999 -9999 -9999 -9999 -9999 -9999 -9999 -9999 -9999 -9999 -9999 -9999 -9999 -9999 -9999 -9999 -9999 -9999 -9999 -9999 -9999 -9999 -9999 -9999 -9999 -9999 -9999 -9999 -9999 -9999 -9999 -9999 -9999 -9999 -9999 -9999 -9999 -9999 -9999 -9999 -9999 -9999 -9999 -9999 -9999 -9999 -9999 -9999 -9999 -9999 -9999 -9999 -9999 -9999 -9999 -9999 -9999 -9999 -9999 -9999 -9999 -9999 -9999 -9999 -9999 -9999 -9999 -9999 -9999 -9999 -9999 -9999 -9999 -9999 -9999 -9999 -9999 -9999 -9999 -9999 -9999 -9999 -9999 -9999 -9999 -9999 -9999 -9999 -9999 -9999 -9999 -9999 -9999 -9999 -9999 -9999 -9999 -9999 -9999 -9999 -9999 -9999 -9999 -9999 -9999 -9999 -9999 -9999 -9999 -9999 -9999 -9999 -9999 -9999 -9999 399.95975 399.56573 398.97687 398.32147 397.7865 397.49954 397.3801 397.38312 397.43158 397.4061 397.36511 397.3656 397.36765 397.39661 397.42462 397.45959 397.47858 397.49908 397.54462 397.53961 397.48462 397.45758 397.43658 397.3931 397.33411 397.28915 397.25665 397.23361 397.19211 397.13422 397.0347 396.90469 396.7652 396.60571 396.46576 396.3288 396.21381 396.0928 395.94229 395.77881 395.61536 395.44891 395.2959 395.16541 395.06342 394.9664 394.88345 394.81 394.73801 394.66351 394.599 394.53802 394.47601 394.4165 394.34149 394.26501 394.198 394.1185 394.03503 393.95062 393.8576 393.7666 393.65259 393.5336 393.41058 393.28415 393.13171 392.96469 392.8002 392.6257 392.45032 392.2518 392.02231 391.82181 391.65836 391.54041 391.45038 391.3624 391.26538 391.1709 391.0994 391.03339 390.97641 390.9339 390.89151 390.85394 390.82599 390.79651 390.76251 390.733 390.70752 390.68848 390.672 390.64401 390.61798 390.60049 390.57648 390.55048 390.53 390.505 390.48901 390.466 390.44501 390.42551 390.39801 390.38251 390.3685 390.35248 390.32703 390.33551 390.30902 390.29102 390.26801 390.26056 390.24207 390.23248 390.22501 390.21201 390.20206 390.19305 390.17651 390.1676 390.16605 390.15607 390.15155 390.14755 390.1311 390.11853 390.1116 390.10361 390.09561 390.08612 390.0806 390.07159 390.06812 390.06262 390.05359 390.05261 390.04111 390.0321 390.04111 390.03461 390.0311 390.02612 390.01312 390.00311 390.00711 390.0076 390.00061 389.9921 389.9856 389.9776 389.9736 389.9711 389.9646 389.95612 389.94708 389.9361 389.93658 389.92712 389.91461 389.89911 389.89111 389.8931 389.8826 389.86761 389.8541 389.8371 389.81711 389.80908 389.79608 389.7771 389.76959 389.75659 389.74658 389.7301 389.71411 389.69861 389.68811 389.67059 389.6546 389.63757 389.6236 389.61157 389.59161 389.57159 389.56015 389.54865 389.54614 389.53964 389.53113 389.53271 389.5047 389.49121 389.4812 389.47418 389.4671 389.4552 389.44119 389.4292 389.41968 389.4057 389.39423 389.38568 389.37817 389.36322 389.3457 389.34021 389.3277 389.32019 389.31519 389.3147 389.29022 389.28821 389.30521 389.30521 389.3042 389.29468 389.29718 389.2807 389.27771 389.28772 389.29071 389.28369 389.2912 389.28668 389.30121 389.29822 389.30621 389.31171 389.32819 389.33069 389.33069 389.3447 389.35669 389.3562 389.36218 389.37769 389.3862 389.39221 389.40421 389.41919 389.43469 389.45172 389.46271 389.47168 389.49319 389.51715 389.54614 389.56964 389.58411 389.58609 389.58868 389.60913 389.6351 389.65411 389.6821 389.70059 389.7106 389.74213 389.77509 389.81061 389.8436 389.86261 389.88458 389.91461 389.93958 389.98111 389.99158 390.02362 390.06958 390.1236 390.1546 390.20862 390.25211 390.29907 390.37155 390.44006 390.5105 390.58551 390.66049 390.75299 390.85352 390.95648 391.08649 391.23047 391.37491 391.51892
-9999 -9999 -9999 -9999 -9999 -9999 -9999 -9999 -9999 -9999 -9999 -9999 -9999 -9999 -9999 -9999 -9999 -9999 -9999 -9999 -9999 -9999 -9999 -9999 -9999 -9999 -9999 -9999 -9999 -9999 -9999 -9999 -9999 -9999 -9999 -9999 -9999 -9999 -9999 -9999 -9999 -9999 -9999 -9999 -9999 -9999 -9999 -9999 -9999 -9999 -9999 -9999 -9999 -9999 -9999 -9999 -9999 -9999 -9999 -9999 -9999 -9999 -9999 -9999 -9999 -9999 -9999 -9999 -9999 -9999 -9999 -9999 -9999 -9999 -9999 -9999 -9999 -9999 -9999 -9999 -9999 -9999 -9999 -9999 -9999 -9999 -9999 -9999 -9999 -9999 -9999 -9999 -9999 -9999 -9999 -9999 -9999 -9999 -9999 -9999 -9999 -9999 -9999 -9999 -9999 -9999 -9999 -9999 -9999 -9999 -9999 -9999 -9999 -9999 -9999 -9999 -9999 -9999 -9999 -9999 -9999 -9999 -9999 -9999 -9999 -9999 -9999 -9999 -9999 -9999 -9999 -9999 400.17969 399.76175 399.08536 398.38644 397.78046 397.47055 397.3476 397.34509 397.3631 397.34412 397.3056 397.29565 397.31561 397.35861 397.39063 397.44861 397.45563 397.4826 397.49512 397.52557 397.44409 397.4021 397.3671 397.33557 397.29419 397.26019 397.23468 397.2182 397.1842 397.11218 396.98572 396.86771 396.7392 396.59222 396.47827 396.36078 396.2468 396.12329 395.98029 395.82733 395.67938 395.5134 395.3494 395.20837 395.1004 394.99744 394.905 394.83646 394.77045 394.70401 394.64252 394.57599 394.52252 394.46002 394.38751 394.32101 394.2515 394.1745 394.09857 394.01611 393.93109 393.84509 393.7421 393.6311 393.5126 393.38416 393.23663 393.07922 392.92023 392.74826 392.56476 392.3703 392.1593 391.9458 391.77386 391.6304 391.54242 391.42841 391.32541 391.23938 391.1684 391.0994 391.04388 390.99347 390.9559 390.92297 390.88452 390.84445 390.80652 390.784 390.76251 390.74548 390.71503 390.685 390.668 390.6485 390.62299 390.60001 390.573 390.55298 390.5365 390.51349 390.49451 390.487 390.46552 390.439 390.414 390.37851 390.39151 390.37152 390.349 390.3295 390.32349 390.31598 390.29449 390.28351 390.26501 390.2515 390.24207 390.22852 390.21655 390.21051 390.20355 390.198 390.18854 390.18311 390.1745 390.1601 390.15009 390.14355 390.13699 390.13007 390.1181 390.11359 390.10809 390.0986 390.09109 390.0881 390.08258 390.07709 390.07611 390.06909 390.06561 390.06409 390.0506 390.04111 390.04111 390.03009 390.02008 390.02112 390.01611 390.01062 390.00461 389.99661 389.98959 389.98709 389.9686 389.96307 389.96259 389.95862 389.94061 389.92859 389.92761 389.92261 389.90359 389.89209 389.87659 389.8526 389.8476 389.8331 389.82062 389.8046 389.79163 389.7746 389.76111 389.75061 389.73511 389.7301 389.71359 389.69659 389.6821 389.66409 389.64758 389.62659 389.60159 389.59558 389.57758 389.5816 389.57416 389.55267 389.54321 389.52264 389.50916 389.50119 389.49866 389.49109 389.47668 389.4502 389.44171 389.43671 389.42719 389.4162 389.40869 389.4032 389.38922 389.3707 389.36169 389.3512 389.33319 389.3262 389.3302 389.32172 389.30219 389.31219 389.31421 389.3017 389.2937 389.29468 389.30121 389.28821 389.28619 389.28918 389.28821 389.29419 389.28918 389.29419 389.30072 389.3092 389.31122 389.31821 389.33069 389.3262 389.34271 389.35571 389.35522 389.34167 389.35019 389.37817 389.38721 389.4057 389.41669 389.43121 389.45419 389.45068 389.45721 389.47919 389.49869 389.53918 389.56665 389.56564 389.58264 389.58868 389.60214 389.6301 389.6496 389.67017 389.69019 389.70514 389.73511 389.75812 389.7901 389.83011 389.8616 389.86859 389.90759 389.93759 389.95959 389.9841 389.99561 390.04462 390.0871 390.13159 390.19012 390.24762 390.29211 390.34363 390.38312 390.45959 390.54355 390.61899 390.6955 390.793 390.8985 391.01501 391.15851 391.29996 391.44141 391.59091
-9999 -9999 -9999 -9999 -9999 -9999 -9999 -9999 -9999 -9999 -9999 -9999 -9999 -9999 -9999 -9999 -9999 -9999 -9999 -9999 -9999 -9999 -9999 -9999 -9999 -9999 -9999 -9999 -9999 -9999 -9999 -9999 -9999 -9999 -9999 -9999 -9999 -9999 -9999 -9999 -9999 -9999 -9999 -9999 -9999 -9999 -9999 -9999 -9999 -9999 -9999 -9999 -9999 -9999 -9999 -9999 -9999 -9999 -9999 -9999 -9999 -9999 -9999 -9999 -9999 -9999 -9999 -9999 -9999 -9999 -9999 -9999 -9999 -9999 -9999 -9999 -9999 -9999 -9999 -9999 -9999 -9999 -9999 -9999 -9999 -9999 -9999 -9999 -9999 -9999 -9999 -9999 -9999 -9999 -9999 -9999 -9999 -9999 -9999 -9999 -9999 -9999 -9999 -9999 -9999 -9999 -9999 -9999 -9999 -9999 -9999 -9999 -9999 -9999 -9999 -9999 -9999 -9999 -9999 -9999 -9999 -9999 -9999 -9999 -9999 -9999 -9999 -9999 -9999 -9999 -9999 -9999 -9999 399.71625 399.03336 398.31644 397.73047 397.43256 397.3096 397.3071 397.32117 397.32159 397.27515 397.25311 397.27716 397.32016 397.43011 397.44458 397.40063 397.38562 397.43661 397.46613 397.38464 397.3421 397.31366 397.28464 397.2562 397.2272 397.20819 397.19171 397.1387 397.04919 396.94171 396.8327 396.71918 396.60223 396.48828 396.37231 396.2648 396.15079 396.02179 395.88184 395.73389 395.57391 395.40289 395.25641 395.14038 395.03745 394.95001 394.88147 394.80945 394.74451 394.68201 394.62347 394.56653 394.50549 394.43301 394.37601 394.30298 394.23151 394.16052 394.08557 394.0036 393.9176 393.83759 393.73761 393.61713 393.4816 393.34564 393.20221 393.04321 392.86469 392.67621 392.4968 392.29828 392.08929 391.88129 391.73785 391.6069 391.4964 391.39539 391.3139 391.23792 391.16888 391.1134 391.05688 391.01144 390.96942 390.93301 390.88544 390.85101 390.82849 390.81149 390.78699 390.763 390.73401 390.71399 390.70099 390.67551 390.6485 390.6235 390.60101 390.58649 390.56702 390.54449 390.53699 390.509 390.48349 390.45502 390.43701 390.42801 390.40851 390.38599 390.37952 390.36249 390.354 390.34698 390.33899 390.31049 390.297 390.28448 390.27002 390.25848 390.2525 390.24457 390.2395 390.23004 390.2196 390.211 390.19812 390.18954 390.18155 390.17303 390.16611 390.1496 390.14459 390.14258 390.13708 390.1301 390.1261 390.12061 390.11209 390.11261 390.10309 390.09961 390.0961 390.08459 390.0751 390.06812 390.05908 390.05261 390.05261 390.0491 390.03558 390.0296 390.0206 390.0116 390.00708 389.99158 389.98358 389.97913 389.9751 389.9726 389.9541 389.95111 389.93961 389.92108 389.9126 389.89709 389.88458 389.87109 389.8616 389.84808 389.82761 389.81161 389.79462 389.78259 389.77362 389.76459 389.7561 389.73657 389.72009 389.7056 389.6861 389.6691 389.6521 389.6196 389.6131 389.59961 389.60358 389.60016 389.56317 389.54321 389.54114 389.53113 389.52216 389.51959 389.48065 389.4722 389.4527 389.4527 389.44269 389.44067 389.42969 389.41968 389.41272 389.39771 389.38922 389.37872 389.3692 389.3512 389.34171 389.34271 389.32721 389.32123 389.31671 389.31619 389.30371 389.29968 389.3107 389.30371 389.29919 389.30072 389.30319 389.30219 389.30219 389.30573 389.2952 389.3132 389.32269 389.32172 389.3287 389.3317 389.33868 389.33472 389.34921 389.36169 389.36319 389.3717 389.38318 389.39819 389.41119 389.43219 389.45169 389.45471 389.4512 389.47272 389.4942 389.5152 389.54022 389.56317 389.57068 389.58771 389.60663 389.62061 389.64813 389.67163 389.68463 389.70563 389.72058 389.74615 389.78009 389.81061 389.83261 389.86108 389.8916 389.9306 389.94958 389.97662 390.00159 390.0231 390.0726 390.11209 390.15662 390.2196 390.28711 390.34357 390.3746 390.4101 390.49005 390.57397 390.67749 390.746 390.84351 390.953 391.073 391.22296 391.36441 391.50488 391.66742
-9999 -9999 -9999 -9999 -9999 -9999 -9999 -9999 -9999 -9999 -9999 -9999 -9999 -9999 -9999 -9999 -9999 -9999 -9999 -9999 -9999 -9999 -9999 -9999 -9999 -9999 -9999 -9999 -9999 -9999 -9999 -9999 -9999 -9999 -9999 -9999 -9999 -9999 -9999 -9999 -9999 -9999 -9999 -9999 -9999 -9999 -9999 -9999 -9999 -9999 -9999 -9999 -9999 -9999 -9999 -9999 -9999 -9999 -9999 -9999 -9999 -9999 -9999 -9999 -9999 -9999 -9999 -9999 -9999 -9999 -9999 -9999 -9999 -9999 -9999 -9999 -9999 -9999 -9999 -9999 -9999 -9999 -9999 -9999 -9999 -9999 -9999 -9999 -9999 -9999 -9999 -9999 -9999 -9999 -9999 -9999 -9999 -9999 -9999 -9999 -9999 -9999 -9999 -9999 -9999 -9999 -9999 -9999 -9999 -9999 -9999 -9999 -9999 -9999 -9999 -9999 -9999 -9999 -9999 -9999 -9999 -9999 -9999 -9999 -9999 -9999 -9999 -9999 -9999 -9999 -9999 -9999 -9999 399.52829 398.89636 398.21295 397.68451 397.39056 397.29065 397.30463 397.33466 397.33911 397.31616 397.27661 397.25171 397.24872 397.38565 397.40912 397.36414 397.33209 397.35663 397.41864 397.40613 397.30316 397.2532 397.2337 397.20471 397.1792 397.16269 397.1532 397.07019 396.97571 396.89471 396.80121 396.6937 396.60223 396.50574 396.38531 396.2818 396.17181 396.05182 395.92188 395.7749 395.61938 395.46289 395.3219 395.1864 395.08337 394.99594 394.91797 394.84299 394.78101 394.715 394.6485 394.5975 394.539 394.47949 394.42551 394.3555 394.27899 394.21451 394.14404 394.0701 393.99207 393.9136 393.81763 393.70459 393.5831 393.44965 393.31616 393.15369 392.97269 392.79022 392.61325 392.42328 392.21478 391.99329 391.80682 391.66687 391.56241 391.4729 391.38538 391.3064 391.24689 391.1864 391.12592 391.06696 391.01691 390.97797 390.93494 390.90451 390.888 390.86249 390.83398 390.81201 390.79199 390.76349 390.74301 390.7225 390.6955 390.67151 390.64951 390.63751 390.61499 390.59149 390.57202 390.539 390.52197 390.5025 390.48651 390.4725 390.44952 390.43298 390.427 390.40851 390.38452 390.38501 390.37701 390.35699 390.33051 390.32098 390.31201 390.30951 390.30051 390.28601 390.27701 390.27148 390.26154 390.24854 390.23608 390.23105 390.2211 390.20709 390.19705 390.1796 390.17059 390.1741 390.1716 390.15909 390.15509 390.15009 390.14362 390.14008 390.1326 390.13208 390.12811 390.11411 390.10162 390.1011 390.09558 390.09061 390.08209 390.07611 390.06311 390.05859 390.04907 390.04211 390.02859 390.0231 390.0141 389.9996 389.99512 389.98511 389.97461 389.97162 389.9581 389.94708 389.93158 389.92059 389.9111 389.8941 389.8891 389.8616 389.84311 389.83011 389.81909 389.8046 389.79608 389.78961 389.77509 389.75311 389.7356 389.7186 389.70209 389.68759 389.66858 389.64111 389.63208 389.62158 389.61359 389.60715 389.58514 389.5672 389.56671 389.56671 389.54413 389.50067 389.47919 389.47717 389.46472 389.4552 389.45221 389.44519 389.44519 389.4382 389.4267 389.40869 389.40771 389.39069 389.37271 389.35919 389.3522 389.3497 389.33771 389.33521 389.3237 389.3187 389.31821 389.3172 389.32568 389.3172 389.30319 389.3092 389.31171 389.3212 389.31122 389.31271 389.31268 389.3277 389.33569 389.33319 389.33069 389.32971 389.34219 389.33569 389.34619 389.3587 389.37122 389.3797 389.39471 389.4032 389.41071 389.44122 389.4552 389.4537 389.4697 389.5007 389.5137 389.5307 389.53421 389.5582 389.58069 389.59814 389.62012 389.63464 389.65814 389.69019 389.69659 389.70911 389.73816 389.76065 389.78915 389.83508 389.8501 389.86511 389.9111 389.92511 389.9581 389.99512 390.02161 390.05109 390.09259 390.1326 390.18011 390.2236 390.28909 390.36206 390.40259 390.4606 390.53253 390.62701 390.72049 390.79999 390.901 391.01349 391.14398 391.28696 391.42346 391.5679 391.7374
-9999 -9999 -9999 -9999 -9999 -9999 -9999 -9999 -9999 -9999 -9999 -9999 -9999 -9999 -9999 -9999 -9999 -9999 -9999 -9999 -9999 -9999 -9999 -9999 -9999 -9999 -9999 -9999 -9999 -9999 -9999 -9999 -9999 -9999 -9999 -9999 -9999 -9999 -9999 -9999 -9999 -9999 -9999 -9999 -9999 -9999 -9999 -9999 -9999 -9999 -9999 -9999 -9999 -9999 -9999 -9999 -9999 -9999 -9999 -9999 -9999 -9999 -9999 -9999 -9999 -9999 -9999 -9999 -9999 -9999 -9999 -9999 -9999 -9999 -9999 -9999 -9999 -9999 -9999 -9999 -9999 -9999 -9999 -9999 -9999 -9999 -9999 -9999 -9999 -9999 -9999 -9999 -9999 -9999 -9999 -9999 -9999 -9999 -9999 -9999 -9999 -9999 -9999 -9999 -9999 -9999 -9999 -9999 -9999 -9999 -9999 -9999 -9999 -9999 -9999 -9999 -9999 -9999 -9999 -9999 -9999 -9999 -9999 -9999 -9999 -9999 -9999 -9999 -9999 -9999 -9999 -9999 -9999 399.4873 398.86536 398.17245 397.681 397.4241 397.3476 397.36914 397.4256 397.42859 397.3891 397.31213 397.2287 397.29071 397.31763 397.30664 397.31464 397.27515 397.34814 397.36316 397.27118 397.21222 397.1962 397.17371 397.14618 397.1217 397.10019 397.05521 396.98969 396.92371 396.85168 396.77069 396.69019 396.6087 396.51324 396.41629 396.3103 396.20532 396.09531 395.95636 395.81885 395.6759 395.5274 395.3674 395.23041 395.12341 395.03491 394.95398 394.8815 394.81351 394.74152 394.68048 394.625 394.5715 394.51651 394.46051 394.39398 394.33002 394.26904 394.20856 394.13501 394.05609 393.9841 393.8916 393.79361 393.68213 393.5596 393.41916 393.25818 393.08319 392.91022 392.73376 392.52475 392.30829 392.09631 391.91083 391.76038 391.64539 391.54739 391.45941 391.3844 391.31488 391.24591 391.17688 391.1189 391.0694 391.0314 390.99646 390.98099 390.9505 390.92496 390.8905 390.86551 390.83551 390.81 390.79001 390.7655 390.73749 390.71851 390.7045 390.68051 390.65948 390.638 390.616 390.59448 390.57349 390.55402 390.535 390.5155 390.4985 390.48749 390.47198 390.45099 390.43951 390.42249 390.41199 390.392 390.36902 390.36249 390.36151 390.35107 390.33505 390.32349 390.31799 390.3075 390.29712 390.28754 390.27759 390.26605 390.25955 390.2486 390.2341 390.22253 390.21661 390.21155 390.19659 390.18909 390.18658 390.18161 390.17511 390.16461 390.16309 390.16309 390.1546 390.14011 390.13861 390.13159 390.12262 390.11261 390.10712 390.0986 390.09161 390.08911 390.08112 390.06561 390.05859 390.0491 390.03909 390.02411 390.0116 390.0076 390.00311 390.00061 389.98608 389.9696 389.96661 389.9581 389.9361 389.9216 389.89862 389.8721 389.86359 389.8566 389.84161 389.8306 389.82111 389.80911 389.79309 389.77258 389.75562 389.73859 389.7226 389.70862 389.68759 389.6701 389.65109 389.64362 389.62759 389.62866 389.61963 389.60767 389.60065 389.57166 389.54114 389.53168 389.51764 389.48822 389.4592 389.45621 389.44568 389.4632 389.4707 389.4552 389.43872 389.42767 389.41269 389.39972 389.38721 389.37421 389.37122 389.35669 389.34418 389.33722 389.3302 389.33069 389.32568 389.31619 389.31821 389.30518 389.3067 389.31921 389.33521 389.32471 389.30872 389.32019 389.32971 389.33221 389.3327 389.3302 389.3302 389.33868 389.34171 389.34219 389.35321 389.36023 389.36572 389.3847 389.39569 389.41467 389.43021 389.44421 389.45673 389.46719 389.49521 389.50421 389.51471 389.5152 389.54321 389.5752 389.5907 389.61166 389.6312 389.64667 389.67163 389.68164 389.70459 389.7182 389.7486 389.76917 389.8111 389.83661 389.85608 389.88559 389.91461 389.95007 389.9816 390.01862 390.04462 390.08011 390.12659 390.1626 390.19461 390.24158 390.30209 390.36859 390.43759 390.5061 390.57751 390.66498 390.75549 390.854 390.966 391.08749 391.21851 391.34851 391.48389 391.6434 391.80792
-9999 -9999 -9999 -9999 -9999 -9999 -9999 -9999 -9999 -9999 -9999 -9999 -9999 -9999 -9999 -9999 -9999 -9999 -9999 -9999 -9999 -9999 -9999 -9999 -9999 -9999 -9999 -9999 -9999 -9999 -9999 -9999 -9999 -9999 -9999 -9999 -9999 -9999 -9999 -9999 -9999 -9999 -9999 -9999 -9999 -9999 -9999 -9999 -9999 -9999 -9999 -9999 -9999 -9999 -9999 -9999 -9999 -9999 -9999 -9999 -9999 -9999 -9999 -9999 -9999 -9999 -9999 -9999 -9999 -9999 -9999 -9999 -9999 -9999 -9999 -9999 -9999 -9999 -9999 -9999 -9999 -9999 -9999 -9999 -9999 -9999 -9999 -9999 -9999 -9999 -9999 -9999 -9999 -9999 -9999 -9999 -9999 -9999 -9999 -9999 -9999 -9999 -9999 -9999 -9999 -9999 -9999 -9999 -9999 -9999 -9999 -9999 -9999 -9999 -9999 -9999 -9999 -9999 -9999 -9999 -9999 -9999 -9999 -9999 -9999 -9999 -9999 -9999 -9999 -9999 -9999 -9999 -9999 399.48279 398.87933 398.21844 397.79498 397.52655 397.39764 397.44312 397.45758 397.39313 397.34766 397.29968 397.23871 397.17914 397.20618 397.26221 397.2562 397.21771 397.20621 397.18921 397.16071 397.1217 397.13068 397.11072 397.08423 397.06769 397.03168 396.98019 396.93121 396.8757 396.8132 396.7402 396.68518 396.60776 396.52826 396.43179 396.34778 396.2493 396.1243 395.99078 395.86136 395.72791 395.57239 395.41638 395.2749 395.1619 395.07394 394.98895 394.91296 394.84198 394.77499 394.70752 394.65198 394.5975 394.54852 394.49652 394.4375 394.38 394.32599 394.26648 394.19556 394.12955 394.0556 393.9696 393.8811 393.77411 393.65759 393.51813 393.36066 393.19922 393.0257 392.82672 392.61877 392.41223 392.2168 392.02881 391.86084 391.72989 391.6214 391.53192 391.4469 391.36938 391.29691 391.2334 391.17889 391.1409 391.1004 391.07593 391.04749 391.0209 390.979 390.93796 390.9115 390.8855 390.85901 390.83551 390.8075 390.7905 390.77301 390.74548 390.72351 390.70398 390.68649 390.66751 390.6445 390.61798 390.59302 390.57202 390.56 390.54852 390.53 390.51453 390.505 390.47699 390.45697 390.44849 390.43301 390.42102 390.41199 390.40155 390.38354 390.37299 390.366 390.35748 390.34656 390.3385 390.32654 390.30853 390.30298 390.2981 390.2901 390.27905 390.2681 390.25507 390.24451 390.23553 390.22809 390.22253 390.21558 390.1991 390.19159 390.1861 390.18759 390.18262 390.1731 390.16309 390.15912 390.1441 390.13458 390.12909 390.12659 390.12561 390.11511 390.10211 390.08759 390.07959 390.07458 390.06561 390.05209 390.0426 390.03662 390.0361 390.0311 390.01459 389.99658 389.99658 389.9816 389.96112 389.9476 389.92761 389.90359 389.89313 389.88611 389.87061 389.8511 389.84363 389.83011 389.81409 389.7951 389.77808 389.76208 389.7496 389.7366 389.71716 389.69513 389.68359 389.66858 389.66418 389.6651 389.65915 389.6456 389.62311 389.58966 389.5777 389.55014 389.5217 389.46869 389.46521 389.45419 389.45972 389.4892 389.47571 389.4682 389.4462 389.44067 389.43219 389.4202 389.40222 389.39371 389.37817 389.36218 389.34918 389.3457 389.34119 389.33868 389.32269 389.31769 389.31519 389.3132 389.32321 389.33917 389.33569 389.31268 389.3222 389.3317 389.3287 389.32672 389.3327 389.33069 389.33569 389.34222 389.34167 389.3472 389.3512 389.3562 389.37469 389.39221 389.4082 389.4202 389.43622 389.44971 389.46271 389.4707 389.49371 389.50671 389.5062 389.52667 389.56219 389.58069 389.60168 389.6272 389.63919 389.65216 389.66714 389.68817 389.69818 389.73016 389.76758 389.78915 389.8186 389.84308 389.8681 389.89459 389.92859 389.96112 390.0076 390.0441 390.07312 390.1116 390.14709 390.19409 390.22961 390.27307 390.32861 390.3891 390.4671 390.54901 390.63849 390.71802 390.79999 390.90198 391.02451 391.15253 391.27551 391.40894 391.56491 391.7229 391.88141
-9999 -9999 -9999 -9999 -9999 -9999 -9999 -9999 -9999 -9999 -9999 -9999 -9999 -9999 -9999 -9999 -9999 -9999 -9999 -9999 -9999 -9999 -9999 -9999 -9999 -9999 -9999 -9999 -9999 -9999 -9999 -9999 -9999 -9999 -9999 -9999 -9999 -9999 -9999 -9999 -9999 -9999 -9999 -9999 -9999 -9999 -9999 -9999 -9999 -9999 -9999 -9999 -9999 -9999 -9999 -9999 -9999 -9999 -9999 -9999 -9999 -9999 -9999 -9999 -9999 -9999 -9999 -9999 -9999 -9999 -9999 -9999 -9999 -9999 -9999 -9999 -9999 -9999 -9999 -9999 -9999 -9999 -9999 -9999 -9999 -9999 -9999 -9999 -9999 -9999 -9999 -9999 -9999 -9999 -9999 -9999 -9999 -9999 -9999 -9999 -9999 -9999 -9999 -9999 -9999 -9999 -9999 -9999 -9999 -9999 -9999 -9999 -9999 -9999 -9999 -9999 -9999 -9999 -9999 -9999 -9999 -9999 -9999 -9999 -9999 -9999 -9999 -9999 -9999 -9999 -9999 -9999 -9999 399.4068 398.91486 398.37045 397.94095 397.61304 397.41357 397.34467 397.28165 397.21619 397.1972 397.12769 397.0332 397.03769 397.17072 397.21118 397.1492 397.11572 397.11221 397.0972 397.06821 397.07919 397.06921 397.04071 397.02618 396.99869 396.96069 396.92569 396.88422 396.82669 396.77472 396.72919 396.66876 396.6062 396.52829 396.44431 396.36981 396.26831 396.14728 396.02728 395.90234 395.76636 395.61938 395.46942 395.32791 395.2034 395.10889 395.0199 394.93796 394.86798 394.79749 394.73499 394.67902 394.62952 394.58502 394.53448 394.46448 394.422 394.37701 394.323 394.25952 394.19409 394.11755 394.04462 393.9606 393.86212 393.74509 393.61462 393.47717 393.32263 393.12122 392.91418 392.71118 392.51175 392.31931 392.1268 391.95035 391.80734 391.7009 391.59839 391.50842 391.42941 391.35889 391.29791 391.25189 391.21191 391.17389 391.13947 391.09839 391.06097 391.01144 390.97845 390.95996 390.93951 390.90802 390.8815 390.8645 390.8465 390.81799 390.7915 390.77051 390.75348 390.737 390.71503 390.68549 390.66 390.63202 390.61652 390.60449 390.58051 390.56299 390.56201 390.548 390.52249 390.505 390.49402 390.47949 390.47351 390.45947 390.4335 390.41949 390.41299 390.40552 390.396 390.38501 390.375 390.36261 390.34998 390.34454 390.33905 390.32855 390.31805 390.30661 390.28961 390.28003 390.26862 390.26254 390.25208 390.23959 390.23108 390.2226 390.2211 390.21609 390.2081 390.1976 390.19263 390.18109 390.16608 390.1636 390.1636 390.16357 390.14862 390.13611 390.1246 390.11511 390.10962 390.10309 390.09259 390.0831 390.07312 390.06509 390.05609 390.05408 390.0351 390.01511 390.00711 389.9971 389.9881 389.9696 389.95309 389.93762 389.92911 389.9111 389.89063 389.87659 389.86459 389.8476 389.83258 389.81958 389.80359 389.78558 389.77509 389.75909 389.73914 389.72409 389.71411 389.69763 389.70367 389.69315 389.67609 389.66711 389.63019 389.6077 389.5791 389.5452 389.5032 389.47769 389.4642 389.47668 389.49719 389.49072 389.48621 389.46671 389.47668 389.4567 389.44067 389.4277 389.41418 389.3992 389.38571 389.37921 389.3652 389.35718 389.35522 389.3382 389.33173 389.3287 389.32318 389.32568 389.3222 389.33121 389.31421 389.32471 389.33618 389.33371 389.33221 389.3367 389.3382 389.34271 389.35321 389.3447 389.34619 389.35272 389.35669 389.37122 389.3862 389.39319 389.4057 389.42218 389.44769 389.46069 389.46521 389.4837 389.49622 389.51019 389.53619 389.5582 389.57172 389.59418 389.6167 389.63068 389.6442 389.65964 389.66418 389.68719 389.72766 389.75861 389.7807 389.80661 389.8291 389.85663 389.87759 389.90909 389.9386 389.9856 390.03009 390.06311 390.09662 390.1261 390.16809 390.2196 390.26559 390.3121 390.36859 390.4281 390.51202 390.60455 390.68951 390.755 390.8465 390.95349 391.073 391.198 391.32849 391.48395 391.6524 391.80042 391.9599
-9999 -9999 -9999 -9999 -9999 -9999 -9999 -9999 -9999 -9999 -9999 -9999 -9999 -9999 -9999 -9999 -9999 -9999 -9999 -9999 -9999 -9999 -9999 -9999 -9999 -9999 -9999 -9999 -9999 -9999 -9999 -9999 -9999 -9999 -9999 -9999 -9999 -9999 -9999 -9999 -9999 -9999 -9999 -9999 -9999 -9999 -9999 -9999 -9999 -9999 -9999 -9999 -9999 -9999 -9999 -9999 -9999 -9999 -9999 -9999 -9999 -9999 -9999 -9999 -9999 -9999 -9999 -9999 -9999 -9999 -9999 -9999 -9999 -9999 -9999 -9999 -9999 -9999 -9999 -9999 -9999 -9999 -9999 -9999 -9999 -9999 -9999 -9999 -9999 -9999 -9999 -9999 -9999 -9999 -9999 -9999 -9999 -9999 -9999 -9999 -9999 -9999 -9999 -9999 -9999 -9999 -9999 -9999 -9999 -9999 -9999 -9999 -9999 -9999 -9999 -9999 -9999 -9999 -9999 -9999 -9999 -9999 -9999 -9999 -9999 -9999 -9999 -9999 -9999 -9999 -9999 -9999 -9999 399.41931 399.04187 398.55389 398.12296 397.73404 397.42465 397.20871 397.07422 396.97021 396.94922 396.9147 396.86569 396.97321 397.05521 397.05219 397.04572 397.07819 397.03223 397.05371 397.02618 396.9957 396.97369 396.9552 396.94919 396.93719 396.91168 396.8757 396.8382 396.78171 396.75818 396.71069 396.65222 396.58679 396.52081 396.45978 396.3783 396.27881 396.17432 396.06079 395.94128 395.81134 395.67441 395.52591 395.3869 395.2554 395.1499 395.0509 394.96851 394.89099 394.82849 394.76401 394.703 394.65948 394.61249 394.56049 394.5105 394.46899 394.42297 394.3735 394.31207 394.24051 394.17911 394.11661 394.03259 393.94159 393.82959 393.7146 393.59109 393.40265 393.20367 393.01221 392.80969 392.6058 392.40228 392.1998 392.0238 391.88635 391.77441 391.67242 391.58191 391.49841 391.42941 391.37939 391.32892 391.28391 391.23389 391.17792 391.13641 391.09299 391.05896 391.03641 391.02148 390.9845 390.957 390.93951 390.91998 390.89099 390.86499 390.84399 390.82501 390.80402 390.77899 390.7525 390.73102 390.70251 390.6825 390.664 390.64001 390.62 390.61652 390.60699 390.58899 390.5705 390.548 390.5365 390.5275 390.51801 390.4935 390.47302 390.45898 390.453 390.44452 390.44202 390.42349 390.41656 390.40448 390.39301 390.38501 390.37555 390.36755 390.35306 390.33704 390.32153 390.30554 390.29706 390.28809 390.27753 390.27008 390.26361 390.25961 390.25259 390.2446 390.23511 390.2261 390.21609 390.20309 390.20361 390.1991 390.19409 390.18311 390.1716 390.16211 390.15259 390.1456 390.14111 390.12811 390.12061 390.1116 390.10211 390.08661 390.08362 390.07761 390.0481 390.03912 390.0311 390.02859 390.01761 389.9971 389.98859 389.96808 389.94708 389.93561 389.9176 389.90009 389.8826 389.86658 389.8616 389.84558 389.82208 389.8056 389.7916 389.7771 389.7626 389.75311 389.73761 389.73215 389.71307 389.6846 389.67413 389.66064 389.63721 389.61212 389.56769 389.54822 389.52869 389.50769 389.52771 389.51569 389.50821 389.49017 389.48221 389.4892 389.48071 389.4697 389.44922 389.43518 389.42221 389.40921 389.4007 389.38971 389.3797 389.36871 389.3562 389.35071 389.3432 389.33618 389.33319 389.3222 389.3302 389.3212 389.3252 389.3447 389.35022 389.35272 389.34271 389.34869 389.35721 389.35721 389.3522 389.35718 389.3602 389.3602 389.37018 389.38171 389.38318 389.3992 389.41418 389.4472 389.4592 389.4642 389.47369 389.48871 389.50873 389.5347 389.56219 389.56567 389.58069 389.6012 389.62219 389.63721 389.65271 389.66321 389.6937 389.72809 389.74265 389.7692 389.79462 389.81915 389.84564 389.86661 389.90509 389.94009 389.97058 390.0141 390.04059 390.08508 390.12262 390.1586 390.19708 390.24512 390.2926 390.3501 390.40411 390.47058 390.5481 390.64606 390.72351 390.80499 390.89697 390.99951 391.12 391.2485 391.388 391.55695 391.72339 391.87189 392.0484
-9999 -9999 -9999 -9999 -9999 -9999 -9999 -9999 -9999 -9999 -9999 -9999 -9999 -9999 -9999 -9999 -9999 -9999 -9999 -9999 -9999 -9999 -9999 -9999 -9999 -9999 -9999 -9999 -9999 -9999 -9999 -9999 -9999 -9999 -9999 -9999 -9999 -9999 -9999 -9999 -9999 -9999 -9999 -9999 -9999 -9999 -9999 -9999 -9999 -9999 -9999 -9999 -9999 -9999 -9999 -9999 -9999 -9999 -9999 -9999 -9999 -9999 -9999 -9999 -9999 -9999 -9999 -9999 -9999 -9999 -9999 -9999 -9999 -9999 -9999 -9999 -9999 -9999 -9999 -9999 -9999 -9999 -9999 -9999 -9999 -9999 -9999 -9999 -9999 -9999 -9999 -9999 -9999 -9999 -9999 -9999 -9999 -9999 -9999 -9999 -9999 -9999 -9999 -9999 -9999 -9999 -9999 -9999 -9999 -9999 -9999 -9999 -9999 -9999 -9999 -9999 -9999 -9999 -9999 -9999 -9999 -9999 -9999 -9999 -9999 -9999 -9999 -9999 -9999 -9999 -9999 -9999 -9999 -9999 399.19336 398.79987 398.39395 397.9505 397.53967 397.17322 396.87122 396.7547 396.76276 396.76721 396.78119 396.8392 396.9082 396.95169 397.01617 396.96121 396.96222 396.97168 396.91519 396.88818 396.86871 396.86218 396.86371 396.84671 396.84619 396.81372 396.76672 396.75427 396.7262 396.67822 396.62427 396.56729 396.52478 396.4613 396.37579 396.29181 396.1933 396.0853 395.9718 395.85385 395.71783 395.57642 395.4339 395.30441 395.19092 395.08795 394.9975 394.922 394.85001 394.78601 394.73199 394.681 394.64099 394.5925 394.54849 394.504 394.45898 394.41199 394.35251 394.29907 394.24411 394.1741 394.0986 394.00711 393.89859 393.78659 393.64862 393.47565 393.29114 393.10468 392.90924 392.69977 392.48029 392.2818 392.10129 391.96335 391.8389 391.7424 391.65491 391.5769 391.51239 391.4549 391.3909 391.33389 391.26788 391.21841 391.18396 391.15695 391.12592 391.099 391.06799 391.03696 391.01947 390.99402 390.9975 390.953 390.91498 390.89551 390.87149 390.84552 390.81952 390.79749 390.77399 390.75201 390.729 390.71198 390.6875 390.672 390.65851 390.63953 390.6235 390.60449 390.5925 390.582 390.577 390.561 390.54199 390.51901 390.51001 390.49799 390.49249 390.47449 390.466 390.452 390.43951 390.42957 390.42059 390.41306 390.39648 390.38452 390.37048 390.35101 390.33704 390.32455 390.31903 390.31461 390.3071 390.29761 390.28961 390.2821 390.27209 390.26361 390.25311 390.24759 390.24359 390.23859 390.22607 390.2211 390.20959 390.19861 390.19159 390.1821 390.1756 390.1611 390.15359 390.15308 390.14111 390.13062 390.1156 390.10559 390.0921 390.0791 390.0701 390.06458 390.05762 390.04059 390.02859 390.01257 389.98959 389.97058 389.95761 389.93762 389.92261 389.9086 389.89911 389.88409 389.8631 389.84109 389.8251 389.81409 389.80609 389.79111 389.77258 389.7486 389.73566 389.70459 389.68817 389.68259 389.67114 389.63565 389.59271 389.5737 389.5697 389.56769 389.56821 389.54572 389.52972 389.5072 389.50519 389.49921 389.50818 389.50769 389.48419 389.4657 389.45819 389.4317 389.41669 389.40619 389.39722 389.38721 389.37671 389.36819 389.35272 389.34668 389.34219 389.33521 389.3457 389.33868 389.33472 389.35468 389.35822 389.3562 389.35519 389.35272 389.3587 389.36771 389.3667 389.3692 389.3692 389.36871 389.37622 389.38071 389.38269 389.39819 389.42169 389.44119 389.46118 389.46021 389.4682 389.4852 389.50519 389.52719 389.5462 389.5542 389.5737 389.59521 389.61371 389.63422 389.6492 389.66519 389.69421 389.71613 389.73322 389.75464 389.7821 389.81165 389.84009 389.8591 389.8941 389.93961 389.95959 389.98761 390.01959 390.05411 390.10611 390.15259 390.17761 390.22412 390.27509 390.3266 390.3811 390.43311 390.50208 390.58508 390.68054 390.759 390.849 390.93851 391.05353 391.17999 391.31049 391.45496 391.62488 391.7854 391.9534 392.13736
