ncols 373
nrows 26
xllcorner 2697153
yllcorner 1228817
cellsize 1
nodata_value -9999
384.10419 384.12622 384.1412 384.14221 384.13571 384.13971 384.15219 384.16718 384.1767 384.1897 384.2002 384.20068 384.20972 384.22769 384.23767 384.25568 384.27069 384.27118 384.24768 384.2392 384.25269 384.26172 384.26318 384.25568 384.24271 384.22119 384.20871 384.18921 384.1637 384.13318 384.10071 384.0592 384.0047 383.96869 383.93768 383.90125 383.86719 383.82925 383.77582 383.73279 383.70029 383.6543 383.58032 383.50928 383.4588 383.44232 383.41528 383.36182 383.33832 383.30579 383.2728 383.2388 383.2048 383.17981 383.15082 383.12231 383.0993 383.05734 383.03333 383.02679 382.99829 382.96234 382.94891 382.9389 382.9379 382.95285 382.97729 382.94986 382.92386 382.87787 382.85138 382.85791 382.8739 382.86792 382.8649 382.87891 382.8779 382.8764 382.8439 382.87439 382.8894 382.88885 382.88736 382.89838 382.92035 382.91492 382.92041 382.95685 382.9903 383.01981 383.01935 383.03534 383.05377 383.06729 383.08481 383.0723 383.07678 383.11432 383.16031 383.19482 383.23029 383.25781 383.27631 383.31128 383.37128 383.3833 383.43481 383.47632 383.52228 383.5593 383.60632 383.62732 383.67627 383.73578 383.7713 383.82324 383.89771 383.95419 383.99872 384.0542 384.11319 384.15918 384.20972 384.2652 384.31219 384.38464 384.46863 384.53217 384.58411 384.6561 384.7301 384.81458 384.89111 384.94159 385.0061 385.09912 385.17859 385.23959 385.31812 385.41156 385.479 385.552 385.62152 385.69351 385.7655 385.82349 385.91699 386.00751 386.09851 386.17444 386.24841 386.3414 386.43939 386.52789 386.6149 386.70392 386.80188 386.90686 387.0228 387.1358 387.25378 387.3623 387.46729 387.58081 387.68677 387.81018 387.93469 388.0592 388.18521 388.31122 388.45215 388.57507 388.73709 388.9151 389.04608 389.17957 389.33252 389.47852 389.6235 389.74152 389.8735 390.02893 390.14789 390.2869 390.44891 390.59241 390.73535 390.88684 391.02686 391.17981 391.3468 391.50427 391.65222 391.79822 391.95172 392.10022 392.23468 392.37817 392.52612 392.66058 392.7641 392.86462 392.9696 393.07611 393.17206 393.26453 393.34851 393.42401 393.5025 393.573 393.64349 393.70599 393.7655 393.8255 393.87549 393.92798 393.97501 394.01453 394.0495 394.08344 394.11096 394.13495 394.15442 394.17438 394.18896 394.20291 394.22141 394.23242 394.2359 394.24341 394.25092 394.25488 394.25092 394.2449 394.23291 394.22141 394.20941 394.21039 394.20538 394.18842 394.1684 394.14795 394.13544 394.12289 394.11139 394.0979 394.08145 394.06595 394.04996 394.03589 394.02341 394.00446 393.98193 393.96948 393.95502 393.93549 393.92249 393.90701 393.88599 393.86499 393.83398 393.82001 393.811 393.784 393.76752 393.755 393.73401 393.71649 393.69202 393.67749 393.66052 393.64648 393.629 393.61798 393.59149 393.57849 393.5585 393.54901 393.53549 393.53299 393.522 393.51398 393.509 393.4935 393.479 393.46649 393.45499 393.46301 393.4545 393.42001 393.41751 393.41052 393.39899 393.38501 393.3645 393.35999 393.3595 393.34851 393.34552 393.34851 393.328 393.32001 393.31201 393.2995 393.28949 393.27451 393.26202 393.25549 393.25299 393.25098 393.237 393.22751 393.2265 393.21948 393.21698 393.20099 393.1795 393.16 393.14401 393.12399 393.11298 393.0845 393.07251 393.06656 393.04407 393.03662 393.02856 393.00854 392.9985 392.995 392.97351 392.95605 392.94257 392.93011 392.91553 392.91412 392.90561 392.89355 392.88501 392.88007 392.88507 392.88751 392.87506 392.85712 392.86761 392.8656 392.86005 392.85962 392.84918 392.84769 392.84967 392.83722 392.81619 392.80969 392.8092 392.80969 392.80573 392.80719 392.80872 392.8002 392.7897 392.77271 392.76471 392.76672 392.75922 392.7532 392.7532 392.7507 392.75018 392.74768 392.73721 392.74823 392.7532
384.08569 384.10471 384.12018 384.12671 384.1257 384.13721 384.14319 384.15668 384.16071 384.1727 384.1572 384.17819 384.20569 384.2157 384.22519 384.23322 384.2522 384.25421 384.24969 384.2417 384.24622 384.25421 384.25421 384.2507 384.23169 384.21472 384.2067 384.18469 384.15869 384.1322 384.1022 384.06021 384.0162 383.9827 383.95074 383.90775 383.87372 383.8172 383.76929 383.73279 383.69427 383.64679 383.5838 383.51428 383.4563 383.43829 383.41479 383.3858 383.3653 383.33331 383.30029 383.27032 383.2308 383.20779 383.1788 383.14532 383.12628 383.08282 383.05539 383.05487 383.02985 382.9899 382.96289 382.94739 382.96631 382.98132 382.97586 382.95685 382.93286 382.91489 382.88892 382.90189 382.9079 382.89838 382.8894 382.9024 382.90091 382.8689 382.8819 382.90491 382.89691 382.8924 382.8844 382.91492 382.94635 382.94141 382.94891 382.98486 383.01886 383.03882 383.03436 383.04932 383.07184 383.04535 383.08582 383.09131 383.08881 383.1308 383.1618 383.18378 383.23929 383.27979 383.3063 383.3363 383.36682 383.39529 383.44678 383.50531 383.56128 383.5878 383.61981 383.65179 383.70129 383.76367 383.79279 383.85519 383.9277 383.97668 384.0242 384.06818 384.11719 384.16418 384.2262 384.2962 384.33969 384.40115 384.48468 384.54419 384.59564 384.6651 384.7301 384.8241 384.90009 384.94312 385.01361 385.1051 385.18011 385.2511 385.3186 385.38306 385.47104 385.53751 385.61353 385.68201 385.73901 385.8175 385.90698 385.99048 386.06445 386.14041 386.21844 386.30292 386.40039 386.49039 386.56842 386.65491 386.75891 386.86487 386.9603 387.06683 387.18079 387.29028 387.40332 387.51678 387.64175 387.76221 387.87921 388.00922 388.1337 388.25821 388.38867 388.52264 388.67715 388.8291 388.96759 389.11661 389.26953 389.41306 389.543 389.67499 389.828 389.97046 390.09344 390.22894 390.38989 390.53088 390.68091 390.82639 390.96835 391.12933 391.2948 391.44531 391.59576 391.75476 391.9072 392.05319 392.19171 392.3432 392.48615 392.60614 392.7081 392.8161 392.93262 393.03058 393.11859 393.2146 393.29803 393.38153 393.45755 393.52551 393.59698 393.6615 393.72549 393.784 393.83301 393.88098 393.93051 393.95801 393.99652 394.03 394.0545 394.08301 394.09991 394.11945 394.12701 394.14343 394.15997 394.17242 394.16943 394.17639 394.18542 394.18396 394.19092 394.18195 394.17041 394.16443 394.1474 394.1355 394.12396 394.10541 394.09344 394.07349 394.06146 394.04095 394.03296 394.02148 394.00351 393.98801 393.97195 393.96045 393.9455 393.92444 393.90747 393.8985 393.87399 393.858 393.83801 393.82001 393.8085 393.7905 393.76147 393.746 393.72601 393.69702 393.68799 393.677 393.6525 393.634 393.61249 393.5965 393.577 393.56549 393.55951 393.52948 393.513 393.4985 393.49402 393.47 393.45947 393.45502 393.43399 393.4035 393.41449 393.40051 393.39697 393.3905 393.37601 393.37701 393.34399 393.34601 393.34052 393.32599 393.3205 393.30051 393.28851 393.27802 393.26651 393.26703 393.26752 393.24701 393.2305 393.23248 393.22748 393.21399 393.20551 393.19299 393.18402 393.17548 393.16299 393.15851 393.14899 393.14752 393.142 393.13699 393.13403 393.11499 393.09711 393.07651 393.05853 393.03699 393.03204 393.01755 393.01654 392.99353 392.97205 392.9726 392.9581 392.94211 392.93805 392.92157 392.90005 392.88904 392.8801 392.86908 392.86108 392.85107 392.84412 392.83661 392.83057 392.82813 392.82208 392.82404 392.80212 392.80609 392.81409 392.79559 392.80209 392.79767 392.8017 392.78967 392.78821 392.78223 392.7652 392.75372 392.7612 392.75775 392.7522 392.76019 392.7612 392.75375 392.74823 392.72772 392.71921 392.71423 392.69919 392.70673 392.7012 392.69769 392.70068 392.6897 392.69672 392.7012 392.69125
384.0672 384.0882 384.10968 384.1192 384.1217 384.13068 384.1387 384.1467 384.14771 384.1517 384.1647 384.1712 384.1922 384.2027 384.20618 384.21368 384.23969 384.24768 384.24319 384.2392 384.23669 384.24319 384.24219 384.24319 384.23019 384.21921 384.2052 384.18219 384.15668 384.1312 384.10321 384.06821 384.02368 383.99319 383.95868 383.91223 383.87674 383.83374 383.77832 383.74329 383.70178 383.65381 383.60382 383.5303 383.4718 383.45529 383.43378 383.4118 383.38531 383.36029 383.32031 383.29382 383.25983 383.23431 383.20282 383.16534 383.15228 383.11932 383.09189 383.07935 383.0639 383.0004 382.9834 382.97992 382.99536 383.00385 382.98291 382.96088 382.95639 382.95142 382.9209 382.93539 382.9389 382.9274 382.92139 382.91638 382.9274 382.9129 382.91241 382.92239 382.91388 382.9234 382.91241 382.94183 382.97729 382.98389 382.98236 383.00885 383.03638 383.05634 383.0618 383.0683 383.07834 383.04486 383.10632 383.13879 383.13629 383.14282 383.1593 383.1933 383.26129 383.31381 383.33081 383.34833 383.37079 383.4043 383.45178 383.51331 383.5538 383.59882 383.6398 383.67078 383.72827 383.78369 383.83475 383.88971 383.9487 383.99872 384.0437 384.08618 384.1272 384.1962 384.25519 384.29419 384.35269 384.39621 384.50519 384.57065 384.61823 384.69312 384.71759 384.81259 384.91608 384.97162 385.03058 385.11261 385.1846 385.24359 385.29712 385.37958 385.46606 385.52399 385.59601 385.65302 385.71948 385.806 385.88202 385.95349 386.02399 386.10846 386.18146 386.2594 386.35388 386.43341 386.51489 386.60339 386.70389 386.80841 386.89835 387.00235 387.1058 387.22028 387.3338 387.44479 387.5658 387.69324 387.81427 387.94421 388.07068 388.18921 388.33569 388.46069 388.59616 388.75708 388.89911 389.04211 389.2056 389.3566 389.49951 389.62048 389.74597 389.91 390.04349 390.173 390.3269 390.49188 390.62491 390.76141 390.90991 391.06836 391.23029 391.3873 391.5368 391.69879 391.8447 391.9892 392.14569 392.28271 392.4227 392.54669 392.6666 392.77112 392.8786 392.9776 393.05109 393.15912 393.2496 393.32953 393.40405 393.47751 393.54602 393.61499 393.67548 393.73651 393.77948 393.82751 393.87152 393.90149 393.94101 393.97351 393.99649 394.02148 394.04144 394.05795 394.06601 394.08197 394.09698 394.10999 394.10699 394.11395 394.12195 394.11493 394.12595 394.11493 394.10693 394.09052 394.07697 394.0585 394.04794 394.02997 394.01593 394.00699 393.98853 393.9725 393.95752 393.944 393.91949 393.897 393.8815 393.8735 393.85748 393.84351 393.8295 393.82001 393.78799 393.77301 393.76147 393.72949 393.72 393.711 393.68649 393.659 393.63849 393.625 393.61349 393.59149 393.57202 393.55402 393.543 393.5065 393.48901 393.48199 393.47498 393.461 393.42001 393.427 393.42401 393.4035 393.38898 393.38101 393.34448 393.3165 393.32849 393.3255 393.31949 393.30853 393.28949 393.25903 393.23355 393.24548 393.25455 393.24005 393.23248 393.22302 393.20703 393.19348 393.19202 393.19901 393.19055 393.16205 393.15305 393.14005 393.14001 393.12701 393.11249 393.10907 393.10352 393.09198 393.0795 393.06903 393.06403 393.06354 393.06848 393.0705 393.05655 393.03503 393.02112 393.00507 392.98462 392.97107 392.96008 392.9491 392.9426 392.92261 392.9046 392.87909 392.8786 392.87262 392.85809 392.8461 392.83612 392.82861 392.82111 392.8056 392.79907 392.79358 392.77411 392.7796 392.77811 392.77011 392.76559 392.75513 392.7561 392.75311 392.75659 392.74609 392.75061 392.74014 392.73825 392.71619 392.72418 392.7182 392.70825 392.70425 392.70575 392.70374 392.6947 392.70569 392.71069 392.70474 392.69928 392.69025 392.67725 392.65826 392.65424 392.65921 392.65369 392.65875 392.65771 392.65472 392.65869 392.65024 392.64478
384.05676 384.07019 384.0932 384.1077 384.11218 384.11371 384.1322 384.14319 384.1387 384.14471 384.1572 384.16571 384.17767 384.19269 384.2002 384.20673 384.21973 384.2352 384.23218 384.2482 384.24872 384.22369 384.22321 384.22522 384.22668 384.21472 384.20172 384.19171 384.1557 384.1322 384.10468 384.06921 384.02771 383.99323 383.95724 383.92371 383.8833 383.8443 383.7948 383.75281 383.71429 383.67029 383.61829 383.57782 383.51428 383.4903 383.4538 383.43231 383.4093 383.37732 383.34082 383.3143 383.28381 383.25729 383.23132 383.19232 383.17331 383.15228 383.12384 383.10291 383.08337 383.03088 382.99689 382.99939 383.02087 383.02087 383.0029 382.9624 382.97089 382.96591 382.95892 382.95685 382.96484 382.95691 382.94989 382.94489 382.95639 382.95889 382.95239 382.96143 382.95642 382.93939 382.97284 382.98779 382.99686 383.00739 383.02139 383.0358 383.0618 383.09229 383.10187 383.11581 383.12079 383.1138 383.1268 383.16528 383.1803 383.17932 383.18381 383.22031 383.28082 383.32532 383.34833 383.37732 383.38879 383.41931 383.46429 383.52228 383.57129 383.60181 383.66031 383.69931 383.75024 383.80219 383.86169 383.92621 383.97919 384.0202 384.0647 384.1152 384.15869 384.21021 384.28369 384.31818 384.34171 384.42719 384.52319 384.59116 384.63458 384.7041 384.77161 384.81812 384.88559 384.97858 385.04358 385.1236 385.18311 385.23709 385.30011 385.37854 385.45203 385.51752 385.57349 385.638 385.686 385.771 385.85699 385.918 385.9845 386.0575 386.13745 386.21939 386.29938 386.37289 386.44739 386.54041 386.64038 386.72888 386.8269 386.93591 387.04135 387.14886 387.2598 387.37079 387.4903 387.61081 387.73383 387.8653 387.9902 388.11771 388.26071 388.39722 388.53516 388.6701 388.81812 388.96509 389.12509 389.28909 389.43457 389.56299 389.68048 389.82501 389.97751 390.11749 390.26495 390.42792 390.5759 390.70093 390.84091 390.99936 391.1608 391.31729 391.4693 391.62628 391.77179 391.91418 392.07123 392.21521 392.3457 392.47168 392.60165 392.7276 392.82562 392.90912 392.9906 393.09161 393.2041 393.28802 393.35104 393.42355 393.49356 393.56201 393.62701 393.67599 393.73499 393.7785 393.81451 393.84399 393.88098 393.91302 393.939 393.95898 393.97601 393.99298 394.00201 394.0195 394.03549 394.0405 394.04901 394.0545 394.05652 394.05145 394.04596 394.03799 394.02451 394.01599 393.99951 393.98749 393.9635 393.95099 393.93201 393.92798 393.91449 393.89899 393.884 393.86551 393.83701 393.80951 393.78949 393.78101 393.77051 393.76001 393.745 393.7345 393.71948 393.69 393.68048 393.66299 393.64252 393.63098 393.603 393.58002 393.56 393.5495 393.54199 393.51849 393.496 393.46899 393.4595 393.43201 393.4075 393.388 393.38348 393.379 393.3465 393.332 393.32956 393.31406 393.30402 393.29355 393.26205 393.25299 393.25757 393.25806 393.2355 393.21655 393.19312 393.16855 393.13409 393.13312 393.14307 393.14362 393.14255 393.1355 393.12305 393.1076 393.10406 393.11105 393.10907 393.08862 393.07959 393.06458 393.05554 393.04456 393.02505 393.00403 393.01062 393.00305 392.99905 392.98956 392.98108 392.97559 392.98206 392.98004 392.97604 392.95361 392.93909 392.92712 392.90811 392.8956 392.89111 392.87958 392.8526 392.83661 392.83008 392.81158 392.7966 392.79611 392.78961 392.77161 392.76257 392.76257 392.7536 392.7446 392.73657 392.73358 392.72058 392.70911 392.7171 392.7146 392.70612 392.70459 392.69409 392.69659 392.6976 392.69708 392.68909 392.68872 392.6778 392.67181 392.66925 392.66168 392.64975 392.65082 392.65329 392.6543 392.64725 392.64471 392.65271 392.65021 392.6427 392.63675 392.6373 392.6308 392.6243 392.61679 392.61575 392.61774 392.62128 392.61771 392.61725 392.61823 392.61627
384.04468 384.0582 384.07819 384.09271 384.08224 384.08026 384.11469 384.1322 384.12469 384.1297 384.1532 384.15771 384.16269 384.17072 384.18073 384.1947 384.20972 384.21771 384.22171 384.21921 384.22021 384.2157 384.20871 384.21619 384.2157 384.20673 384.19421 384.1767 384.1532 384.12421 384.09668 384.05719 384.01672 383.98425 383.96228 383.9303 383.89178 383.84921 383.81274 383.76282 383.7243 383.68579 383.64728 383.59277 383.55231 383.51779 383.4838 383.45529 383.43079 383.4003 383.3623 383.3363 383.30731 383.2753 383.24884 383.22034 383.19128 383.17029 383.15134 383.13135 383.1044 383.06186 383.03888 383.04239 383.04492 383.04742 383.00342 382.9379 382.95392 382.98639 382.99835 383.00031 382.99686 382.98441 382.98041 382.99042 383.00189 382.99091 382.97885 382.98834 382.98785 382.9444 382.96585 383.01831 383.02734 383.0379 383.06592 383.07635 383.09485 383.11334 383.1293 383.13837 383.15436 383.1618 383.17081 383.1908 383.2153 383.21729 383.20981 383.2543 383.3118 383.34882 383.37131 383.4003 383.41931 383.45029 383.49829 383.54431 383.59131 383.63678 383.68231 383.73279 383.76874 383.81573 383.88324 383.94476 383.9957 384.04269 384.09418 384.13019 384.16171 384.22321 384.29669 384.3392 384.3992 384.46869 384.54718 384.60815 384.65662 384.7121 384.7796 384.8461 384.90411 384.97159 385.04761 385.1181 385.18011 385.2326 385.28711 385.36206 385.42856 385.49207 385.54456 385.60101 385.65552 385.73001 385.82101 385.88599 385.93848 386.01151 386.07001 386.16602 386.24445 386.31845 386.39539 386.4834 386.5574 386.6459 386.71991 386.85889 386.96588 387.06433 387.1723 387.28729 387.4028 387.51678 387.6423 387.77582 387.89975 388.0267 388.15668 388.29321 388.4527 388.60019 388.73914 388.88812 389.0481 389.19461 389.3291 389.46155 389.61349 389.74951 389.8945 390.04547 390.20343 390.35339 390.47693 390.61691 390.7724 390.91492 391.07233 391.23181 391.39178 391.54578 391.70428 391.84726 391.97772 392.12817 392.26669 392.3967 392.53021 392.65613 392.76208 392.84558 392.9426 393.04211 393.15009 393.22559 393.29962 393.3746 393.44299 393.50598 393.5665 393.617 393.673 393.707 393.75702 393.78851 393.82449 393.85651 393.88 393.897 393.914 393.9285 393.94 393.953 393.95349 393.957 393.97751 393.9845 393.98651 393.98102 393.97751 393.9595 393.94849 393.94153 393.93051 393.91 393.88348 393.8595 393.84949 393.84552 393.83002 393.8165 393.80151 393.7785 393.7645 393.737 393.71649 393.70801 393.68152 393.68152 393.66901 393.65302 393.63348 393.61551 393.59198 393.57449 393.56049 393.54102 393.51898 393.49799 393.47748 393.466 393.45551 393.436 393.39999 393.39252 393.38702 393.35748 393.33954 393.31656 393.2955 393.29407 393.26306 393.24554 393.2431 393.22955 393.21362 393.2001 393.19104 393.17957 393.18011 393.16162 393.15259 393.12659 393.07312 393.05261 393.04361 393.04761 393.05359 393.0556 393.04611 393.04111 393.04059 393.0256 393.02258 393.0191 393.01709 393.0101 393.00208 392.98459 392.97159 392.9606 392.95261 392.94611 392.93161 392.93311 392.9231 392.91058 392.91309 392.90411 392.89508 392.8916 392.88312 392.87408 392.86459 392.8511 392.84961 392.83862 392.8241 392.80359 392.77661 392.76709 392.75861 392.7421 392.74408 392.74109 392.73059 392.71008 392.70111 392.68961 392.68359 392.68011 392.6781 392.67462 392.66058 392.65961 392.6586 392.65912 392.65811 392.6481 392.64911 392.64761 392.64459 392.6366 392.63312 392.63321 392.6268 392.62079 392.6243 392.61627 392.6008 392.60529 392.60229 392.5993 392.5928 392.60379 392.60278 392.59583 392.59076 392.58325 392.58875 392.58929 392.57532 392.55731 392.56482 392.57581 392.57727 392.56726 392.56525 392.56879 392.57825
384.03674 384.04718 384.0672 384.07425 384.0867 384.08472 384.09973 384.12219 384.11469 384.1152 384.13373 384.13824 384.15118 384.15921 384.15921 384.18121 384.1962 384.20068 384.20819 384.20569 384.20721 384.2027 384.20068 384.19769 384.1972 384.19171 384.1792 384.16171 384.14771 384.11871 384.0882 384.05371 384.01321 383.98474 383.96381 383.93179 383.89481 383.85675 383.82031 383.77979 383.7413 383.70081 383.6593 383.6048 383.5748 383.54779 383.51379 383.48279 383.45831 383.42181 383.38931 383.36331 383.33282 383.2908 383.26434 383.24835 383.2193 383.19629 383.17734 383.15689 383.13385 383.10385 383.08087 383.0639 383.06738 383.06989 383.05389 382.9884 382.97791 383.02039 383.03235 383.03085 383.02335 383.01089 383.0209 383.03088 383.02139 383.02341 383.01135 383.02484 383.01785 382.9744 382.9859 383.03836 383.04688 383.07587 383.10385 383.11487 383.12286 383.14136 383.15833 383.17181 383.18781 383.17529 383.1843 383.22131 383.24881 383.25079 383.24329 383.28229 383.33978 383.3898 383.41229 383.43732 383.4758 383.50677 383.5368 383.53778 383.58478 383.64929 383.69781 383.74829 383.80481 383.85181 383.89331 383.96332 384.01425 384.06519 384.10822 384.14423 384.1987 384.26019 384.3187 384.3887 384.4487 384.49768 384.56567 384.62665 384.68909 384.7446 384.80109 384.86609 384.92407 384.98209 385.04761 385.1181 385.16211 385.2171 385.27161 385.34662 385.41309 385.46906 385.51956 385.57599 385.62 385.68298 385.77399 385.84802 385.90051 385.94849 386.00699 386.103 386.17297 386.25098 386.32794 386.40741 386.48138 386.5549 386.63641 386.77539 386.85687 386.97888 387.08685 387.19482 387.30078 387.41479 387.53931 387.67279 387.80475 387.93176 388.06177 388.2052 388.3587 388.5062 388.65167 388.80066 388.93909 389.09061 389.2251 389.36859 389.52106 389.65704 389.8075 389.95947 390.11743 390.28247 390.40594 390.52692 390.68039 390.82288 390.98685 391.15231 391.31232 391.46579 391.6243 391.7598 391.90222 392.05267 392.19421 392.3212 392.45471 392.57568 392.68164 392.78308 392.88812 392.98761 393.07458 393.1651 393.23911 393.31012 393.39056 393.45355 393.5065 393.55701 393.60052 393.638 393.68799 393.72552 393.7605 393.79251 393.815 393.832 393.85001 393.86749 393.879 393.88651 393.89697 393.90051 393.90649 393.91351 393.90698 393.9075 393.90399 393.89349 393.8725 393.86551 393.85251 393.82703 393.80051 393.78949 393.77951 393.76202 393.7475 393.73401 393.71149 393.6965 393.6825 393.6705 393.65002 393.63751 393.61401 393.61401 393.5845 393.56451 393.54501 393.53552 393.51199 393.4935 393.47949 393.46002 393.43152 393.41055 393.39005 393.37347 393.36401 393.34448 393.32855 393.32104 393.3175 393.27505 393.25711 393.2356 393.20557 393.2041 393.19409 393.17657 393.1611 393.15454 393.13861 393.11511 393.10559 393.09412 393.08911 393.0741 393.06509 393.04761 392.99408 392.95612 392.96362 392.96759 392.95761 392.9606 392.95111 392.95459 392.9541 392.94611 392.9436 392.94009 392.93658 392.92212 392.91409 392.90558 392.89258 392.88159 392.87109 392.86462 392.86609 392.8526 392.84259 392.8306 392.82761 392.8186 392.81262 392.80911 392.79611 392.79059 392.7811 392.7821 392.7731 392.76208 392.74908 392.72858 392.71509 392.7056 392.69708 392.68961 392.68512 392.6821 392.67261 392.6521 392.64011 392.63708 392.6311 392.62109 392.6196 392.61609 392.60858 392.60559 392.60461 392.5976 392.59662 392.60309 392.60309 392.60162 392.59061 392.58209 392.57861 392.58121 392.5748 392.5668 392.5643 392.55627 392.55328 392.5528 392.5498 392.54581 392.5448 392.55579 392.54327 392.53632 392.53479 392.52582 392.53131 392.54633 392.52332 392.50531 392.50629 392.5173 392.5278 392.5148 392.51279 392.51727 392.54181
384.02527 384.03772 384.05127 384.05624 384.07123 384.07727 384.0943 384.10718 384.1022 384.1012 384.11273 384.12122 384.13922 384.14069 384.1387 384.1492 384.1702 384.1832 384.18622 384.18719 384.18768 384.1962 384.19568 384.1907 384.18921 384.18021 384.16971 384.16571 384.1427 384.11823 384.09326 384.05219 384.02332 383.99731 383.96924 383.93179 383.89481 383.86481 383.83179 383.79129 383.7493 383.70978 383.6658 383.6163 383.58481 383.5618 383.53229 383.50378 383.4808 383.44482 383.41229 383.38879 383.3548 383.31281 383.29132 383.27332 383.24335 383.23129 383.20532 383.18933 383.16187 383.13635 383.11835 383.09888 383.09735 383.10339 383.08841 383.06491 383.05939 383.07037 383.06683 383.05884 383.04187 383.05536 383.0654 383.06241 383.0524 383.0444 383.0459 383.05688 383.04639 383.00488 383.02591 383.04492 383.06134 383.10831 383.13928 383.1528 383.16284 383.17331 383.19141 383.20782 383.21436 383.2023 383.22229 383.24579 383.27881 383.27979 383.28027 383.3288 383.37531 383.4173 383.45181 383.47729 383.50629 383.53729 383.57379 383.5643 383.6203 383.6803 383.7338 383.78333 383.82831 383.87924 383.92181 383.98126 384.0372 384.0867 384.1347 384.17871 384.24017 384.29019 384.34869 384.42371 384.48468 384.5242 384.57819 384.64014 384.70715 384.77066 384.82111 384.86908 384.92661 384.99561 385.05859 385.1181 385.1561 385.21112 385.27557 385.3331 385.3996 385.45355 385.50806 385.55103 385.60849 385.65799 385.7345 385.80151 385.84448 385.87152 385.96399 386.03851 386.10547 386.17749 386.25644 386.34094 386.40546 386.48242 386.59189 386.67938 386.75238 386.87091 386.98334 387.08386 387.19733 387.30829 387.43579 387.5658 387.67126 387.83282 387.95776 388.1207 388.26422 388.38867 388.54321 388.69464 388.83115 388.98962 389.13959 389.28961 389.43408 389.58899 389.72198 389.86298 390.021 390.17352 390.31445 390.43237 390.59338 390.78693 390.91833 391.06934 391.2113 391.3768 391.53082 391.64978 391.81873 391.97424 392.1167 392.25372 392.3912 392.49271 392.59915 392.70313 392.8201 392.91559 393.00061 393.0881 393.1666 393.23962 393.3186 393.37711 393.43707 393.48749 393.53806 393.58505 393.62 393.65802 393.69501 393.71899 393.74152 393.75851 393.78 393.80402 393.80798 393.82001 393.83249 393.83649 393.8385 393.84851 393.8295 393.82599 393.82147 393.815 393.80051 393.78351 393.77301 393.75153 393.73999 393.72552 393.69949 393.68549 393.6655 393.65201 393.629 393.616 393.60651 393.58051 393.56699 393.56097 393.55151 393.53 393.504 393.47858 393.46506 393.45154 393.435 393.42352 393.40204 393.38306 393.35352 393.32761 393.31055 393.29105 393.29407 393.25705 393.23059 393.22305 393.23303 393.19562 393.1796 393.15161 393.11661 393.1116 393.1156 393.08661 393.07208 393.06812 393.0556 393.04608 393.01959 393.01459 393.00958 392.99512 392.97961 392.95709 392.93161 392.89758 392.8786 392.88208 392.88361 392.8746 392.87262 392.87311 392.86359 392.85809 392.85358 392.84909 392.84558 392.8356 392.82861 392.8241 392.8201 392.80658 392.79559 392.7886 392.78961 392.77759 392.76959 392.75659 392.75461 392.74957 392.73859 392.73212 392.72308 392.70758 392.70508 392.7066 392.69809 392.68411 392.6626 392.63959 392.64209 392.64111 392.6431 392.63409 392.62561 392.6181 392.60461 392.59412 392.58612 392.5816 392.56659 392.5621 392.55859 392.55463 392.55209 392.55109 392.54611 392.53711 392.53912 392.54211 392.5491 392.54211 392.54211 392.5256 392.51959 392.52722 392.5238 392.5043 392.5108 392.50928 392.5033 392.50378 392.50378 392.50131 392.50229 392.50229 392.4863 392.4808 392.44379 392.44629 392.48029 392.48779 392.47528 392.45178 392.45929 392.46881 392.48029 392.4668 392.46729 392.4743 392.49481
384.01672 384.02673 384.04028 384.05124 384.0567 384.06268 384.07776 384.09525 384.09674 384.0947 384.10376 384.1127 384.12268 384.13574 384.12469 384.1257 384.15271 384.16223 384.17072 384.18372 384.1777 384.17819 384.17468 384.18073 384.18021 384.1727 384.16669 384.16022 384.13171 384.11322 384.09723 384.06519 384.03473 384.00626 383.97223 383.94232 383.9093 383.8678 383.8403 383.8013 383.76129 383.72778 383.67682 383.63181 383.59531 383.5733 383.54382 383.52029 383.50879 383.46729 383.42932 383.4043 383.3728 383.35181 383.3233 383.29828 383.27332 383.25928 383.23334 383.21439 383.19089 383.16684 383.14835 383.12488 383.12485 383.13141 383.1344 383.11792 383.1044 383.10889 383.09836 383.08881 383.0719 383.08392 383.0939 383.08936 383.08286 383.0824 383.07892 383.08389 383.08191 383.0239 383.0209 383.07541 383.10831 383.13934 383.16281 383.1893 383.16779 383.2038 383.22437 383.23828 383.24835 383.25879 383.25781 383.2803 383.31079 383.33179 383.33279 383.36578 383.4068 383.44379 383.48181 383.49982 383.53479 383.56381 383.60431 383.62579 383.65881 383.7233 383.7688 383.80481 383.85275 383.9043 383.95581 384.00925 384.0592 384.1102 384.16272 384.20721 384.25171 384.30121 384.36819 384.43073 384.48718 384.53223 384.59421 384.66113 384.71967 384.77667 384.82861 384.8721 384.9411 384.9946 385.05261 385.1026 385.15808 385.20709 385.25708 385.31512 385.37759 385.43262 385.47955 385.52551 385.58801 385.616 385.67999 385.72198 385.77698 385.82349 385.9075 385.97998 386.0405 386.11249 386.18799 386.26645 386.33395 386.41589 386.50739 386.59241 386.6604 386.76837 386.86737 386.97589 387.08838 387.20532 387.32281 387.42279 387.52728 387.71082 387.8493 387.99969 388.14319 388.27521 388.4252 388.57867 388.73169 388.89209 389.0076 389.18011 389.3461 389.48749 389.633 389.78 389.92749 390.073 390.22345 390.35245 390.5199 390.68793 390.81842 390.9624 391.10278 391.2793 391.4393 391.56232 391.7233 391.87823 392.02917 392.17419 392.29169 392.40918 392.52118 392.62714 392.73566 392.8226 392.9306 393.01508 393.11761 393.18161 393.24359 393.30658 393.36462 393.41754 393.47861 393.52161 393.55106 393.59399 393.61951 393.64752 393.67151 393.694 393.71149 393.72601 393.73151 393.7395 393.754 393.76099 393.7645 393.77399 393.74597 393.7355 393.74548 393.733 393.71399 393.70148 393.69348 393.6825 393.66699 393.646 393.62048 393.60199 393.5965 393.57599 393.55701 393.543 393.52399 393.5015 393.48904 393.478 393.45953 393.44751 393.42654 393.40759 393.39459 393.36108 393.35907 393.34155 393.3161 393.2951 393.27005 393.2431 393.23358 393.21509 393.20709 393.16861 393.1351 393.13361 393.1236 393.11459 393.0831 393.06061 393.02811 393.02911 393.02557 392.9986 392.98761 392.97913 392.9686 392.97009 392.9361 392.92459 392.9281 392.91861 392.89059 392.8696 392.85211 392.8161 392.78662 392.79309 392.81461 392.7966 392.80359 392.78961 392.7796 392.77759 392.7681 392.76508 392.75812 392.75461 392.74957 392.7486 392.74359 392.7326 392.72009 392.7131 392.70959 392.70059 392.6951 392.68811 392.68408 392.67859 392.66608 392.6546 392.65359 392.63559 392.64111 392.6301 392.62659 392.61212 392.59662 392.58411 392.56909 392.57312 392.57559 392.57208 392.56262 392.55511 392.54358 392.53061 392.52661 392.51611 392.51111 392.50311 392.4946 392.49512 392.49762 392.50012 392.49561 392.48911 392.4881 392.48712 392.48761 392.4996 392.49408 392.4791 392.47711 392.48071 392.46881 392.45428 392.46582 392.4603 392.4563 392.45129 392.4538 392.45081 392.45129 392.4548 392.45129 392.42181 392.37781 392.38782 392.4068 392.42529 392.43079 392.40228 392.4118 392.41931 392.4303 392.42578 392.42432 392.43127 392.4303
384.00781 384.01724 384.02979 384.03632 384.04126 384.0502 384.06119 384.07776 384.08624 384.08875 384.09723 384.10629 384.11176 384.11823 384.12231 384.12823 384.1402 384.15274 384.15973 384.17075 384.17773 384.16769 384.15973 384.15875 384.16418 384.15826 384.14975 384.14075 384.12021 384.09821 384.08569 384.06769 384.04272 384.01569 383.98276 383.95129 383.92029 383.8783 383.8418 383.80829 383.78229 383.7428 383.69232 383.64981 383.6203 383.59631 383.56879 383.54279 383.4938 383.48828 383.45081 383.43329 383.4003 383.38129 383.3623 383.33279 383.30429 383.2803 383.26135 383.24432 383.22491 383.19739 383.16635 383.1579 383.1514 383.1554 383.1579 383.15735 383.14142 383.14038 383.13089 383.12241 383.11191 383.11191 383.12091 383.11835 383.11536 383.11688 383.1254 383.12189 383.11542 383.08789 383.05591 383.0954 383.14893 383.18591 383.18936 383.20679 383.1958 383.20581 383.24884 383.26184 383.27484 383.28833 383.31329 383.3223 383.3468 383.36578 383.38681 383.41031 383.4408 383.47382 383.5083 383.5318 383.56128 383.5993 383.63281 383.6698 383.70279 383.74078 383.78528 383.83429 383.88025 383.93121 383.97723 384.03125 384.08423 384.12619 384.17719 384.22919 384.26721 384.31519 384.3732 384.44321 384.49323 384.5412 384.6037 384.66522 384.72614 384.77667 384.8291 384.8826 384.9306 384.9946 385.04211 385.08661 385.14362 385.1951 385.23712 385.2981 385.3501 385.40259 385.44955 385.50156 385.543 385.58752 385.59851 385.6825 385.71997 385.7735 385.84851 385.91751 385.995 386.06097 386.12048 386.18701 386.25244 386.3414 386.42789 386.51691 386.59039 386.6889 386.77588 386.87091 386.98792 387.09833 387.21881 387.3158 387.4198 387.57782 387.72778 387.87732 388.01425 388.15668 388.31171 388.45972 388.5867 388.75266 388.9191 389.01959 389.20209 389.36859 389.50699 389.6655 389.83002 389.97748 390.12097 390.26996 390.42645 390.56842 390.71838 390.86539 391.00891 391.17188 391.34531 391.47882 391.63181 391.77582 391.92468 392.0672 392.1987 392.31219 392.43518 392.54419 392.64722 392.74615 392.8396 392.93707 393.03159 393.12659 393.17712 393.23761 393.29309 393.34711 393.3996 393.44611 393.48608 393.51862 393.54605 393.57306 393.60101 393.62549 393.64499 393.65552 393.65802 393.66299 393.66998 393.67401 393.6795 393.67651 393.668 393.65552 393.64951 393.64398 393.62201 393.61151 393.604 393.59302 393.58051 393.55902 393.53906 393.51056 393.50955 393.50598 393.47549 393.45898 393.44104 393.41855 393.4046 393.39508 393.3736 393.3606 393.34055 393.3226 393.31711 393.2951 393.27161 393.25409 393.23212 393.21112 393.18762 393.16309 393.14011 393.13159 393.10858 393.0831 393.05859 393.04712 393.0336 393.02008 393.00259 392.9726 392.95511 392.94061 392.9371 392.91559 392.8996 392.89362 392.88562 392.87561 392.86011 392.84259 392.8316 392.82611 392.81158 392.78308 392.77008 392.74561 392.7196 392.7016 392.7186 392.71509 392.70111 392.6991 392.6926 392.69211 392.6911 392.6871 392.67908 392.6741 392.67462 392.6626 392.6586 392.65558 392.64362 392.6366 392.66858 392.65961 392.61359 392.61261 392.60709 392.6051 392.59711 392.58661 392.5726 392.56207 392.56207 392.56659 392.5481 392.54413 392.53711 392.52411 392.51459 392.50861 392.50665 392.50616 392.49817 392.4946 392.48914 392.47467 392.4606 392.45459 392.45209 392.45062 392.44208 392.43958 392.44116 392.44666 392.43961 392.43561 392.44016 392.43509 392.43259 392.4281 392.44266 392.43515 392.42761 392.42719 392.41632 392.41632 392.4198 392.40778 392.40781 392.40332 392.3988 392.3913 392.39032 392.40131 392.40479 392.3913 392.36081 392.35382 392.36481 392.36829 392.37482 392.3638 392.36182 392.3558 392.37781 392.37878 392.38678 392.38129 392.38181
383.99628 384.00781 384.01178 384.01831 384.03973 384.02728 384.03775 384.06128 384.06824 384.0722 384.08279 384.09381 384.09778 384.1008 384.1073 384.1088 384.12524 384.14224 384.14575 384.15674 384.14978 384.1543 384.14978 384.14923 384.14771 384.14624 384.1452 384.13226 384.11224 384.09521 384.0827 384.0618 384.03979 384.01675 383.99078 383.96579 383.93179 383.89929 383.86029 383.81931 383.78528 383.75531 383.71179 383.6763 383.65228 383.62781 383.57928 383.5368 383.5108 383.48981 383.48682 383.46381 383.4313 383.40332 383.38031 383.35327 383.32129 383.2973 383.28027 383.26929 383.24786 383.20685 383.18341 383.18292 383.18988 383.18735 383.18884 383.18491 383.17389 383.16888 383.16486 383.15585 383.14841 383.1384 383.1394 383.14636 383.14337 383.15338 383.15991 383.16339 383.16086 383.13739 383.11438 383.11688 383.17041 383.21228 383.21533 383.22437 383.24234 383.24738 383.26489 383.28931 383.30981 383.32428 383.34131 383.35681 383.3808 383.39282 383.41681 383.4343 383.47528 383.50781 383.5238 383.5473 383.58582 383.62531 383.66132 383.69281 383.7298 383.76529 383.80981 383.84979 383.89478 383.95422 383.99921 384.0477 384.0947 384.14471 384.1907 384.2392 384.2872 384.34167 384.40118 384.45221 384.50623 384.55219 384.59769 384.66412 384.72614 384.76672 384.81915 384.84814 384.90363 384.9801 385.02859 385.07059 385.12708 385.1701 385.18512 385.24359 385.32208 385.3671 385.40759 385.4671 385.51257 385.55157 385.58051 385.62 385.69299 385.74652 385.78351 385.83951 385.9335 385.98849 386.04401 386.10248 386.181 386.26996 386.34799 386.43494 386.51788 386.57239 386.66992 386.78192 386.8819 386.99042 387.11786 387.20984 387.31186 387.46631 387.58331 387.7323 387.89227 388.0307 388.18372 388.34421 388.47119 388.63367 388.8046 388.93408 389.08807 389.24158 389.38953 389.54254 389.70898 389.866 389.99902 390.14899 390.28995 390.4494 390.6059 390.7594 390.90839 391.0614 391.21439 391.37286 391.53381 391.6438 391.78125 391.95825 392.1037 392.22418 392.34119 392.4502 392.56372 392.66772 392.76263 392.84766 392.94659 393.02811 393.10059 393.1586 393.22009 393.27509 393.32208 393.37811 393.41809 393.4501 393.47705 393.50507 393.53003 393.54901 393.56848 393.577 393.5795 393.58801 393.59052 393.59305 393.59753 393.595 393.58649 393.57703 393.565 393.5545 393.53406 393.5285 393.5145 393.50455 393.49207 393.47705 393.45557 393.42911 393.4191 393.4166 393.39404 393.36761 393.3511 393.33011 393.3186 393.30908 393.2901 393.28558 393.26208 393.24512 393.2261 393.2066 393.1861 393.16858 393.14459 393.12561 393.1066 393.08807 393.05408 393.03461 393.01611 392.99261 392.96661 392.94958 392.94312 392.93408 392.91858 392.8941 392.86761 392.85059 392.84061 392.82159 392.8056 392.7981 392.78961 392.7836 392.77911 392.75458 392.74158 392.72162 392.7211 392.7016 392.70007 392.67459 392.6611 392.64261 392.6441 392.64209 392.62659 392.6051 392.59967 392.61215 392.61407 392.6091 392.59711 392.60059 392.59659 392.5871 392.57861 392.57559 392.56961 392.5621 392.59109 392.56708 392.55209 392.54108 392.5376 392.52661 392.52609 392.52557 392.5061 392.49316 392.49265 392.48865 392.47961 392.46814 392.46414 392.46057 392.45111 392.45419 392.4527 392.4487 392.4491 392.43765 392.4317 392.42615 392.41211 392.4072 392.40219 392.39764 392.38864 392.38416 392.38971 392.3877 392.38568 392.38568 392.38464 392.3811 392.38916 392.38422 392.38672 392.38666 392.3797 392.37427 392.36932 392.36932 392.36078 392.36029 392.35931 392.35931 392.35031 392.33929 392.32629 392.31931 392.32681 392.3233 392.30981 392.3248 392.3288 392.32782 392.33179 392.33731 392.32782 392.31729 392.32928 392.33929 392.34332 392.3418 392.33929
383.9903 383.9838 383.98779 384.00629 384.02277 384.01031 384.0188 384.03882 384.04575 384.06024 384.07129 384.08228 384.07874 384.08176 384.09531 384.10324 384.11969 384.1217 384.11929 384.13031 384.12427 384.12875 384.14529 384.14374 384.14221 384.12576 384.13171 384.11874 384.1088 384.09174 384.07925 384.0618 384.03979 384.02081 383.9903 383.9653 383.94531 383.90582 383.86682 383.83081 383.79681 383.76978 383.7348 383.69928 383.67081 383.6488 383.60028 383.56479 383.53882 383.5163 383.50879 383.48578 383.44781 383.41681 383.3938 383.3728 383.34079 383.31586 383.30432 383.29333 383.2663 383.22833 383.2049 383.2139 383.21686 383.21429 383.21136 383.2074 383.20337 383.19635 383.19232 383.17987 383.17584 383.16583 383.16241 383.16937 383.18237 383.1814 383.1879 383.19739 383.20081 383.17737 383.16034 383.16284 383.18292 383.23331 383.23636 383.25488 383.2818 383.28687 383.30334 383.32181 383.34229 383.3533 383.3703 383.39279 383.41028 383.4223 383.43182 383.4588 383.49982 383.52881 383.5448 383.5813 383.6073 383.64679 383.68127 383.71332 383.75031 383.78879 383.81879 383.8588 383.91077 383.97021 384.01923 384.0607 384.1077 384.16071 384.2012 384.24969 384.29871 384.35321 384.40521 384.44971 384.50372 384.55219 384.59119 384.65765 384.71414 384.7547 384.80865 384.87067 384.92609 384.97009 385.01459 385.05658 385.09558 385.14011 385.15509 385.20758 385.28607 385.3306 385.3616 385.42108 385.4751 385.50311 385.53204 385.57507 385.64807 385.707 385.7475 385.80353 385.82251 385.914 385.96948 386.05048 386.129 386.1835 386.2655 386.35245 386.40393 386.49139 386.5889 386.66888 386.7619 386.87042 386.98492 387.0769 387.19983 387.3468 387.46381 387.60132 387.76282 387.90125 388.04269 388.20319 388.35272 388.49371 388.66464 388.82062 388.95709 389.1106 389.27411 389.4071 389.57355 389.74649 389.87952 390.01849 390.16748 390.32697 390.48242 390.65891 390.80789 390.94238 391.0954 391.24786 391.3988 391.50879 391.65833 391.83331 391.97876 392.1142 392.2312 392.35522 392.46771 392.57172 392.65472 392.74969 392.84863 392.9256 393.0116 393.06961 393.1236 393.17859 393.24109 393.29309 393.3331 393.37012 393.40509 393.43311 393.44861 393.46753 393.49054 393.49805 393.50055 393.51007 393.51501 393.51755 393.5101 393.50757 393.50455 393.49655 393.48456 393.46857 393.44812 393.44257 393.43954 393.4241 393.41162 393.38611 393.36462 393.3371 393.32758 393.32507 393.31009 393.28412 393.26761 393.2536 393.2421 393.22412 393.2131 393.20862 393.1926 393.1626 393.14362 393.12762 393.10712 393.09161 393.05408 393.0351 393.0231 393.00208 392.96808 392.9491 392.94611 392.92261 392.87909 392.86212 392.85608 392.84711 392.8316 392.82559 392.78711 392.77011 392.75211 392.73309 392.72412 392.71558 392.70709 392.69815 392.6936 392.6691 392.64865 392.63361 392.63312 392.62714 392.62564 392.61316 392.58966 392.57117 392.57315 392.57715 392.56165 392.54413 392.5387 392.53363 392.53113 392.52615 392.52917 392.52866 392.52466 392.51917 392.51065 392.5036 392.49414 392.48663 392.48511 392.49265 392.47766 392.46466 392.47113 392.46014 392.45615 392.45563 392.45914 392.43719 392.43671 392.42621 392.42963 392.41821 392.40219 392.39862 392.39215 392.3967 392.3952 392.3967 392.39114 392.3797 392.37518 392.36963 392.36264 392.3577 392.35269 392.34869 392.34369 392.33917 392.32867 392.33118 392.32919 392.33368 392.33264 392.33167 392.34564 392.3407 392.3252 392.32764 392.32068 392.32574 392.3208 392.3078 392.3093 392.30878 392.31479 392.30981 392.30078 392.29181 392.27429 392.2673 392.26831 392.2648 392.2673 392.25879 392.26282 392.28333 392.28882 392.29431 392.29431 392.28381 392.29028 392.3028 392.30682 392.31131 392.31281
383.97632 383.99329 383.99982 384.00378 384.00781 383.99829 384.01581 384.0228 384.04028 384.0488 384.05627 384.06979 384.06625 384.0723 384.08478 384.09674 384.10828 384.1073 384.10382 384.1153 384.10925 384.13574 384.1387 384.13373 384.12424 384.1098 384.10022 384.1073 384.10632 384.09174 384.07227 384.05829 384.03528 384.01678 383.98779 383.96478 383.94128 383.90829 383.87531 383.83929 383.81329 383.78381 383.74579 383.7113 383.68329 383.65729 383.63031 383.59479 383.57233 383.54431 383.52728 383.50482 383.46881 383.4368 383.41528 383.4053 383.37634 383.34534 383.33435 383.3179 383.2959 383.2529 383.2359 383.25684 383.2533 383.2403 383.23737 383.22986 383.22986 383.22281 383.21991 383.21436 383.20731 383.19586 383.19489 383.20892 383.20691 383.20691 383.20239 383.2074 383.21985 383.20035 383.20441 383.22437 383.23383 383.25531 383.26236 383.28333 383.30933 383.3168 383.3403 383.36279 383.3743 383.38531 383.3938 383.41879 383.44427 383.46429 383.45929 383.48331 383.5213 383.55029 383.58081 383.60931 383.63782 383.66931 383.71082 383.73529 383.77478 383.80829 383.84332 383.88229 383.93427 383.98926 384.03119 384.0722 384.12268 384.17169 384.21771 384.2597 384.30872 384.36218 384.41269 384.4592 384.50818 384.55322 384.59521 384.6507 384.7077 384.74713 384.7981 384.86908 384.91559 384.95609 384.99609 385.02509 385.07309 385.11511 385.15411 385.2066 385.2486 385.28809 385.33008 385.37158 385.42059 385.46661 385.51953 385.54907 385.58206 385.63049 385.68903 385.74149 385.78601 385.83951 385.91052 385.96503 386.04501 386.12152 386.18649 386.255 386.29449 386.38446 386.48993 386.57391 386.65588 386.7554 386.8699 386.96442 387.08942 387.22934 387.3313 387.45831 387.6283 387.77032 387.92175 388.0712 388.22119 388.3717 388.5242 388.69421 388.83615 388.98959 389.1481 389.2821 389.43359 389.60657 389.75598 389.92999 390.08051 390.21899 390.35999 390.52945 390.67291 390.8074 390.9549 391.10742 391.26337 391.39478 391.53882 391.70428 391.84476 391.97424 392.10526 392.2547 392.36819 392.46368 392.55319 392.64819 392.74115 392.8316 392.9086 392.96613 393.02008 393.0936 393.1416 393.18958 393.2261 393.26959 393.31763 393.3476 393.3591 393.37512 393.3996 393.4101 393.41956 393.42404 393.43054 393.4256 393.41608 393.41058 393.40961 393.40411 393.38263 393.38361 393.36761 393.36859 393.35559 393.34311 393.32562 393.30011 393.2731 393.25211 393.24408 393.24408 393.2236 393.20209 393.18658 393.17358 393.16058 393.14758 393.1351 393.1261 393.11411 393.0896 393.06763 393.04962 393.0336 393.01208 392.97961 392.95859 392.94061 392.91711 392.88062 392.86359 392.86407 392.8436 392.80011 392.78308 392.7681 392.76312 392.80267 392.78662 392.71561 392.7066 392.69666 392.67865 392.67664 392.66464 392.6441 392.62213 392.60965 392.59021 392.57416 392.56909 392.56815 392.56219 392.55267 392.52722 392.5032 392.48465 392.49866 392.5062 392.49469 392.47717 392.47165 392.46515 392.45972 392.45615 392.45416 392.45569 392.44672 392.44623 392.44165 392.43616 392.4267 392.41968 392.41968 392.41519 392.41418 392.4032 392.3952 392.39771 392.39368 392.40564 392.39063 392.37421 392.37122 392.3642 392.37122 392.33868 392.33868 392.34021 392.33771 392.33371 392.33069 392.33569 392.33118 392.32471 392.3212 392.31821 392.31219 392.3067 392.30322 392.30219 392.2962 392.28369 392.28021 392.27869 392.28168 392.28619 392.28168 392.27469 392.28571 392.28369 392.28271 392.27368 392.28223 392.26825 392.2623 392.26428 392.25928 392.26581 392.26981 392.26129 392.25229 392.24731 392.23029 392.21979 392.22083 392.21478 392.21329 392.20978 392.22528 392.23279 392.23981 392.24683 392.24683 392.2543 392.26031 392.26532 392.26981 392.27631 392.28632
383.9733 383.98581 383.98981 384.0018 383.98431 383.99731 384.0033 384.0148 384.02582 384.02829 384.05429 384.05829 384.0563 384.06329 384.0733 384.08279 384.08923 384.08081 384.08179 384.09882 384.11575 384.12079 384.11127 384.10724 384.08978 384.08923 384.10028 384.1008 384.09583 384.0773 384.06531 384.04529 384.03479 384.01282 383.9873 383.9563 383.93481 383.9093 383.87982 383.84882 383.81879 383.79181 383.75031 383.71829 383.68829 383.67181 383.64532 383.61731 383.59229 383.55829 383.54431 383.52332 383.49377 383.46082 383.44281 383.42834 383.39981 383.37878 383.34937 383.33386 383.30939 383.26541 383.2634 383.27637 383.27789 383.26636 383.25079 383.24939 383.24936 383.2514 383.25232 383.23737 383.23981 383.2319 383.24042 383.2439 383.24536 383.23041 383.22635 383.23138 383.22137 383.21838 383.24341 383.25739 383.26135 383.28091 383.3024 383.32135 383.3338 383.34631 383.3728 383.39478 383.41229 383.42081 383.4303 383.45428 383.48328 383.49982 383.49579 383.52228 383.5578 383.5813 383.5798 383.61133 383.65631 383.69281 383.72931 383.77029 383.79883 383.83429 383.87183 383.90631 383.9498 383.99329 384.03473 384.0882 384.13574 384.18671 384.22571 384.27271 384.31769 384.37421 384.4162 384.45618 384.50922 384.55469 384.59219 384.64972 384.69922 384.73669 384.79614 384.84216 384.88861 384.92859 384.96362 384.99908 385.05157 385.0961 385.1351 385.1806 385.20709 385.2486 385.29358 385.34659 385.38361 385.42761 385.46561 385.4906 385.5036 385.57257 385.62955 385.67151 385.72156 385.78101 385.82501 385.88901 385.97351 386.013 386.09851 386.14099 386.2045 386.2735 386.37695 386.46094 386.54144 386.65338 386.76089 386.8504 386.9794 387.10785 387.22134 387.35736 387.49829 387.6243 387.79175 387.90582 388.08676 388.22675 388.38721 388.55771 388.70715 388.87109 389.01111 389.15363 389.30859 389.47455 389.63757 389.81403 389.94751 390.08002 390.23651 390.38596 390.5329 390.69641 390.80539 390.97888 391.13834 391.29486 391.42438 391.56781 391.70081 391.8363 391.98926 392.13776 392.2532 392.35919 392.45172 392.54822 392.64117 392.72864 392.7952 392.85364 392.93109 392.99414 393.03961 393.09009 393.13312 393.18161 393.22662 393.2561 393.2666 393.28461 393.3046 393.31812 393.32809 393.33362 393.33612 393.3291 393.32159 393.31659 393.3201 393.30212 393.2941 393.2876 393.28711 393.26511 393.2536 393.2431 393.22961 393.2171 393.20261 393.1781 393.17459 393.16461 393.13959 393.12561 393.1076 393.10059 393.08511 393.07159 393.05908 393.04111 393.03412 393.01511 392.9986 392.9776 392.9541 392.9371 392.90411 392.8851 392.85962 392.82916 392.80109 392.7876 392.78259 392.7601 392.73309 392.72009 392.69965 392.6882 392.6911 392.65863 392.64008 392.63171 392.6167 392.61566 392.61267 392.59164 392.56219 392.54471 392.53369 392.53119 392.50366 392.4942 392.49319 392.48166 392.48016 392.4382 392.4137 392.4162 392.4317 392.4202 392.41821 392.40869 392.40271 392.39621 392.3927 392.39069 392.38818 392.38171 392.37421 392.37421 392.37122 392.37268 392.35718 392.3537 392.35168 392.35919 392.34869 392.32123 392.33368 392.33221 392.3367 392.33972 392.32172 392.31873 392.31671 392.31268 392.30017 392.28918 392.28769 392.28522 392.28171 392.2717 392.2677 392.27771 392.27521 392.26819 392.26422 392.25821 392.25769 392.25018 392.24872 392.25119 392.24521 392.23669 392.23822 392.23218 392.23718 392.23718 392.2417 392.23669 392.23871 392.2442 392.2337 392.2417 392.23071 392.21973 392.22284 392.22235 392.21381 392.21936 392.2233 392.22034 392.2128 392.20636 392.19086 392.18881 392.17581 392.17331 392.17877 392.17578 392.18781 392.1918 392.17987 392.19431 392.20532 392.21829 392.2178 392.22882 392.2363 392.24631 392.26031
383.95529 383.96881 383.9743 383.98279 383.97131 383.9823 383.98828 384.0033 384.00378 384.01678 384.0293 384.02179 384.03931 384.04779 384.06131 384.06927 384.0733 384.06781 384.0708 384.08582 384.10223 384.1098 384.09631 384.10229 384.1033 384.08975 384.08728 384.08929 384.07629 384.06982 384.05481 384.04181 384.03229 384.0058 383.98682 383.95532 383.9313 383.90479 383.88431 383.85681 383.82629 383.79529 383.76031 383.72931 383.6973 383.68481 383.6738 383.63181 383.60681 383.57281 383.5578 383.53879 383.50928 383.49182 383.46729 383.44885 383.42578 383.40881 383.37936 383.35193 383.3269 383.30591 383.2919 383.29333 383.30191 383.29636 383.27783 383.26788 383.28241 383.28387 383.27783 383.25839 383.26434 383.26892 383.26538 383.2684 383.27536 383.26538 383.25336 383.25336 383.22891 383.24792 383.26535 383.29834 383.29938 383.32288 383.3399 383.34534 383.36877 383.37579 383.40179 383.41931 383.44379 383.44931 383.46033 383.48383 383.50031 383.52631 383.53979 383.56079 383.58081 383.61182 383.61029 383.63681 383.6918 383.7178 383.7558 383.79129 383.81381 383.8548 383.88879 383.92432 383.9498 383.9928 384.02881 384.09918 384.14224 384.19171 384.2287 384.27771 384.32068 384.36823 384.40472 384.45221 384.50421 384.54321 384.58368 384.6362 384.66821 384.72522 384.7782 384.81921 384.8671 384.90265 384.94266 384.98163 385.01862 385.06958 385.1106 385.1431 385.17761 385.2056 385.24109 385.2876 385.3241 385.37158 385.40759 385.4256 385.4491 385.5271 385.56711 385.6145 385.6561 385.70258 385.76147 385.8175 385.867 385.9245 385.995 386.0545 386.11099 386.16699 386.258 386.35251 386.44794 386.55188 386.64392 386.7309 386.85638 386.97992 387.1109 387.2319 387.36981 387.5163 387.65082 387.7933 387.94281 388.09976 388.25119 388.41669 388.5712 388.72717 388.88013 389.03009 389.17609 389.3421 389.5051 389.65411 389.80499 389.95203 390.10352 390.25101 390.41995 390.56891 390.68738 390.84439 391.00589 391.1684 391.29791 391.44128 391.5903 391.71729 391.85828 392.00781 392.1257 392.24323 392.3432 392.4382 392.53522 392.63269 392.7002 392.75922 392.82916 392.89221 392.9411 392.99011 393.03961 393.08209 393.12961 393.16412 393.18109 393.19312 393.21008 393.22162 393.23212 393.24109 393.2446 393.24408 393.23309 393.23459 393.24261 393.23309 393.2121 393.20111 393.19611 393.1796 393.16309 393.15759 393.14508 393.13959 393.12561 393.10461 393.09961 393.09061 393.06659 393.05359 393.03558 393.0311 393.0101 393.00458 392.97861 392.95709 392.94458 392.93311 392.91461 392.89667 392.87366 392.85461 392.82565 392.79865 392.77411 392.74664 392.72165 392.70709 392.6976 392.68814 392.65915 392.64667 392.63019 392.6102 392.59515 392.58221 392.56564 392.5517 392.54269 392.53668 392.52167 392.50269 392.4787 392.4657 392.45868 392.43219 392.42468 392.41669 392.41919 392.4032 392.39172 392.36621 392.34421 392.34271 392.3537 392.35168 392.35071 392.33569 392.32819 392.33868 392.32971 392.32071 392.31769 392.3132 392.3092 392.30322 392.30219 392.30569 392.2937 392.29022 392.2897 392.31219 392.27917 392.26871 392.2702 392.2742 392.26971 392.2782 392.2807 392.26819 392.26819 392.26419 392.2587 392.24518 392.24069 392.23419 392.2287 392.2247 392.20569 392.2142 392.2222 392.21472 392.2077 392.21021 392.20621 392.20169 392.2002 392.19919 392.20221 392.1947 392.19269 392.19318 392.18219 392.1907 392.19568 392.20319 392.19971 392.19971 392.1937 392.19769 392.19769 392.18781 392.18542 392.18286 392.17188 392.17786 392.18787 392.18433 392.17731 392.17291 392.15991 392.15436 392.14929 392.15582 392.15179 392.14429 392.15381 392.1528 392.13986 392.15228 392.17334 392.18182 392.17786 392.18381 392.19482 392.2168 392.23529
383.9408 383.9458 383.95679 383.9653 383.95581 383.95731 383.97031 383.98132 383.99078 383.99377 384.0058 384.01181 384.01581 384.02881 384.04129 384.05179 384.06079 384.06329 384.0603 384.07031 384.08331 384.09329 384.09882 384.09729 384.09631 384.08978 384.08081 384.07428 384.07031 384.06131 384.0433 384.02832 384.01379 384.0033 383.97931 383.96332 383.9278 383.8988 383.87479 383.85629 383.83978 383.80731 383.77332 383.74179 383.72079 383.7023 383.6813 383.6528 383.62378 383.59631 383.57681 383.5603 383.53079 383.5098 383.49329 383.4668 383.44531 383.4303 383.40335 383.3804 383.36243 383.34241 383.32339 383.3219 383.32391 383.32391 383.3114 383.3064 383.29941 383.31091 383.30688 383.29639 383.2934 383.28992 383.29089 383.28992 383.29791 383.29791 383.29388 383.2869 383.2764 383.2749 383.29034 383.31732 383.33929 383.35681 383.37329 383.37689 383.39532 383.4028 383.4248 383.4433 383.45929 383.47281 383.49481 383.50281 383.52081 383.54932 383.56479 383.59277 383.6138 383.63782 383.65479 383.67529 383.71332 383.7413 383.77679 383.81079 383.83478 383.86182 383.8978 383.94128 383.9733 384.00128 384.04779 384.10574 384.15668 384.19318 384.23071 384.27771 384.32819 384.36621 384.39771 384.44818 384.49469 384.5332 384.5712 384.6207 384.66919 384.71222 384.75519 384.8002 384.84119 384.88458 384.92065 384.95172 384.9856 385.0311 385.07361 385.1051 385.12711 385.1691 385.1976 385.23212 385.27863 385.3251 385.3541 385.38611 385.41663 385.4621 385.5116 385.55463 385.59857 385.64111 385.69012 385.7475 385.78699 385.85001 385.92249 385.983 386.0405 386.099 386.16949 386.25452 386.36246 386.43945 386.52795 386.62241 386.73489 386.86188 386.98389 387.08789 387.21985 387.38177 387.53729 387.6778 387.81879 387.96924 388.12622 388.26971 388.41971 388.58069 388.7467 388.90665 389.04712 389.20459 389.36359 389.51559 389.65906 389.81799 389.97852 390.12701 390.285 390.43744 390.58789 390.7294 390.87988 391.0249 391.1709 391.31586 391.4678 391.60681 391.7403 391.87878 392.00024 392.11371 392.22772 392.32471 392.41418 392.51172 392.5907 392.6597 392.7262 392.78522 392.8457 392.89465 392.94208 392.99011 393.0321 393.05762 393.08862 393.10712 393.12457 393.13361 393.13959 393.15112 393.15558 393.15808 393.15259 393.1521 393.15759 393.15259 393.13708 393.12207 393.11261 393.1091 393.09509 393.08008 393.06909 393.0611 393.0466 393.03009 393.0206 393.01361 393.00061 392.98212 392.96307 392.95361 392.93909 392.91858 392.9006 392.88165 392.86017 392.84265 392.81961 392.80463 392.78668 392.76416 392.74014 392.72321 392.69568 392.67017 392.64618 392.6312 392.62213 392.60965 392.5882 392.57071 392.5567 392.53821 392.52368 392.50171 392.4892 392.47919 392.46667 392.45819 392.43518 392.41418 392.39868 392.38971 392.38269 392.36072 392.33319 392.34021 392.3432 392.33618 392.3187 392.2962 392.2832 392.26672 392.28119 392.28522 392.2832 392.26971 392.2612 392.2677 392.27069 392.2547 392.25269 392.24921 392.23822 392.23471 392.23169 392.23718 392.23322 392.22971 392.22772 392.24121 392.2377 392.22021 392.22522 392.22119 392.21368 392.21118 392.21918 392.21918 392.21869 392.20868 392.20068 392.20068 392.1922 392.18872 392.18768 392.1817 392.17419 392.14471 392.15421 392.16971 392.15771 392.15869 392.16571 392.16071 392.15619 392.1532 392.15369 392.15021 392.1412 392.1402 392.1442 392.14319 392.14319 392.14917 392.15369 392.15869 392.1517 392.15118 392.1452 392.14429 392.14539 392.14392 392.13342 392.1329 392.13684 392.13684 392.13531 392.13684 392.13541 392.1199 392.11435 392.12634 392.13486 392.12836 392.13037 392.13287 392.12885 392.12982 392.14337 392.14893 392.1539 392.15485 392.15979 392.18085 392.20084
383.92731 383.93329 383.94128 383.9498 383.95532 383.95679 383.96082 383.96429 383.97382 383.98529 383.9913 383.99731 384.0018 384.01477 384.02478 384.03632 384.04529 384.04529 384.04681 384.05682 384.06482 384.0748 384.0788 384.0813 384.08032 384.07831 384.07379 384.06729 384.05432 384.04681 384.02881 384.01581 384.00131 383.98831 383.97083 383.9548 383.92679 383.90479 383.8808 383.85629 383.83978 383.82031 383.78479 383.7533 383.7283 383.72079 383.6998 383.67279 383.6438 383.60779 383.59531 383.5788 383.54578 383.52829 383.51178 383.48285 383.46082 383.4458 383.43481 383.41187 383.39185 383.3714 383.35239 383.33939 383.34189 383.34189 383.33289 383.32788 383.32684 383.32291 383.31891 383.31989 383.3309 383.32739 383.3179 383.30341 383.3114 383.3269 383.32291 383.31989 383.31339 383.31189 383.31934 383.33984 383.36185 383.38184 383.39835 383.40533 383.41684 383.42432 383.45331 383.47278 383.4888 383.48431 383.50629 383.53082 383.54831 383.57681 383.59778 383.60931 383.63031 383.6618 383.6683 383.68881 383.71832 383.74631 383.79327 383.82928 383.8533 383.88879 383.90729 383.95081 383.99628 384.02429 384.06677 384.10272 384.15369 384.19971 384.2352 384.2822 384.32471 384.3627 384.3992 384.4397 384.48621 384.52472 384.5647 384.6142 384.65118 384.68469 384.72772 384.77371 384.8147 384.85217 384.89014 384.9212 384.9566 384.9866 385.02911 385.0451 385.06711 385.1116 385.16409 385.19861 385.24261 385.27063 385.29962 385.3241 385.35361 385.39911 385.45258 385.49561 385.52362 385.57813 385.62711 385.67706 385.733 385.79602 385.85101 385.9115 385.953 386.01898 386.08951 386.15302 386.26001 386.33698 386.43399 386.52844 386.6369 386.73489 386.8569 386.9624 387.09088 387.25284 387.40436 387.54681 387.68781 387.81531 387.97223 388.11774 388.2702 388.43121 388.60269 388.7417 388.88214 389.06711 389.2261 389.38361 389.5051 389.66406 389.83249 389.99951 390.1575 390.31799 390.46844 390.6019 390.76141 390.9064 391.0499 391.18591 391.33783 391.4628 391.61182 391.75031 391.88031 391.99377 392.10275 392.21271 392.30219 392.40521 392.4772 392.5462 392.62018 392.6792 392.74072 392.8067 392.85413 392.89508 392.93161 392.95709 392.98608 393.0076 393.02509 393.03961 393.04559 393.05511 393.06409 393.06659 393.06461 393.06461 393.0701 393.06509 393.04959 393.03659 393.03607 393.03259 393.02112 393.00415 392.99316 392.98059 392.96609 392.9501 392.93909 392.9321 392.92212 392.90814 392.88916 392.88016 392.85767 392.83716 392.81763 392.79871 392.78021 392.7587 392.73566 392.72272 392.70367 392.68115 392.65717 392.6402 392.62219 392.59119 392.5672 392.5582 392.55322 392.54071 392.51672 392.49921 392.48322 392.46719 392.4527 392.4342 392.41669 392.40671 392.39319 392.37817 392.35519 392.34119 392.32568 392.3132 392.31372 392.29169 392.27118 392.2717 392.27472 392.2692 392.25171 392.23621 392.21619 392.19971 392.2077 392.20721 392.2052 392.2027 392.19421 392.2002 392.19922 392.1832 392.18469 392.1832 392.17221 392.16571 392.1687 392.17419 392.1767 392.17322 392.16968 392.16919 392.16571 392.17322 392.16168 392.15771 392.15521 392.15271 392.1572 392.16119 392.16071 392.15869 392.15118 392.15118 392.14621 392.14319 392.14221 392.12817 392.1207 392.1087 392.10571 392.12122 392.11871 392.10718 392.1142 392.11319 392.1087 392.10718 392.1077 392.10419 392.09171 392.09222 392.09619 392.09772 392.09772 392.10669 392.10718 392.11218 392.1152 392.11169 392.10571 392.11078 392.09589 392.09442 392.09088 392.09039 392.09039 392.08539 392.08386 392.0954 392.10541 392.0899 392.07739 392.08942 392.09442 392.10391 392.1059 392.10791 392.10635 392.1073 392.1098 392.11536 392.12592 392.13736 392.1423 392.15991 392.17291
383.9158 383.9173 383.92529 383.93829 383.94379 383.94928 383.96179 383.9653 383.97629 383.9733 383.97931 383.98932 383.99377 384.00128 384.0083 384.01981 384.03027 384.03278 384.0343 384.04279 384.05078 384.05682 384.0668 384.06931 384.06378 384.0578 384.05328 384.0448 384.04431 384.0368 384.01831 384.00531 383.99579 383.97031 383.95282 383.94031 383.9263 383.9043 383.88931 383.86481 383.8508 383.82831 383.79279 383.75931 383.73932 383.73181 383.70679 383.67981 383.64728 383.62128 383.6088 383.5878 383.5643 383.54681 383.52835 383.50189 383.47986 383.46634 383.45532 383.43286 383.41281 383.39233 383.37735 383.35339 383.3559 383.37238 383.3634 383.35687 383.34531 383.34137 383.34686 383.34338 383.3544 383.34937 383.35089 383.3364 383.33441 383.34991 383.35083 383.3414 383.3349 383.33588 383.34485 383.36536 383.38037 383.40033 383.42133 383.43985 383.45135 383.46185 383.4743 383.49377 383.5123 383.50781 383.53632 383.56378 383.5813 383.59979 383.62878 383.64032 383.65729 383.68231 383.68881 383.70532 383.7348 383.77332 383.80829 383.8443 383.87732 383.9173 383.93579 383.94781 383.99329 384.03479 384.06879 384.10474 384.15417 384.20221 384.2377 384.28171 384.32422 384.35718 384.39371 384.4342 384.47418 384.51318 384.55319 384.58618 384.63269 384.6662 384.69519 384.74121 384.77722 384.80521 384.8432 384.88617 384.92267 384.95264 384.97461 384.9906 385.02515 385.0636 385.11609 385.15558 385.18011 385.20813 385.23059 385.2616 385.29111 385.33258 385.38611 385.41608 385.4451 385.4996 385.5376 385.60608 385.66205 385.707 385.76199 385.81601 385.86301 385.92902 385.97101 386.05151 386.15851 386.23999 386.33698 386.41595 386.51495 386.61295 386.74139 386.85541 386.98389 387.1319 387.26788 387.41034 387.5513 387.67877 387.83228 387.9798 388.13226 388.30225 388.45721 388.59619 388.74872 388.93365 389.10861 389.27112 389.39258 389.54156 389.69504 389.86206 390.02399 390.18451 390.32947 390.46338 390.62289 390.78339 390.93039 391.06641 391.19684 391.32785 391.47687 391.6008 391.7308 391.85931 391.97931 392.08923 392.19873 392.2757 392.34772 392.4502 392.5242 392.57721 392.64371 392.70972 392.75714 392.79266 392.82916 392.85913 392.88464 392.90613 392.92664 392.94116 392.94812 392.95813 392.96716 392.97165 392.98358 392.98358 392.98065 392.97565 392.96008 392.94714 392.94666 392.95612 392.94061 392.92365 392.9097 392.89716 392.88409 392.87515 392.86414 392.85464 392.83716 392.82318 392.8132 392.7962 392.77368 392.7547 392.7352 392.72418 392.70621 392.68469 392.6622 392.64423 392.62518 392.60321 392.57922 392.56171 392.5452 392.51422 392.4917 392.4762 392.47119 392.46521 392.44122 392.4212 392.4097 392.39368 392.3822 392.36371 392.34619 392.33319 392.3172 392.30219 392.2887 392.27472 392.24622 392.24219 392.24268 392.22272 392.20819 392.20871 392.19971 392.19421 392.18021 392.17419 392.15421 392.14471 392.13422 392.1337 392.1347 392.1322 392.12671 392.1232 392.12219 392.1102 392.11569 392.1142 392.1062 392.1142 392.11719 392.11121 392.11371 392.11267 392.11069 392.1102 392.1127 392.11871 392.10718 392.09271 392.09021 392.09271 392.09421 392.09821 392.1087 392.11969 392.11218 392.1167 392.09921 392.09619 392.10168 392.08771 392.08868 392.08868 392.08569 392.08521 392.08069 392.06921 392.05521 392.0542 392.05621 392.0607 392.06122 392.05469 392.04822 392.04871 392.06671 392.06821 392.07471 392.06421 392.0647 392.07971 392.08569 392.08221 392.07669 392.0773 392.06241 392.05139 392.04791 392.0394 392.03641 392.0314 392.0444 392.02692 392.03693 392.06342 392.0509 392.0524 392.05542 392.06491 392.07642 392.0799 392.07837 392.07483 392.07733 392.0914 392.10138 392.11285 392.13141 392.12891 392.14191
383.9118 383.9133 383.91779 383.9278 383.9368 383.94431 383.95428 383.96429 383.95779 383.95731 383.96729 383.9743 383.98328 383.9938 384.00232 384.01031 384.01678 384.0173 384.02731 384.03131 384.0358 384.04279 384.05231 384.0513 384.03931 384.0368 384.03381 384.03531 384.03131 384.0238 384.0043 383.99579 383.97879 383.95581 383.93829 383.93378 383.92133 383.9118 383.88879 383.86627 383.84531 383.82629 383.79681 383.76379 383.7468 383.7258 383.70831 383.68378 383.65582 383.63229 383.62631 383.6048 383.5838 383.56735 383.54529 383.52283 383.50385 383.48792 383.4639 383.44986 383.43381 383.42188 383.39886 383.38739 383.37939 383.38589 383.3974 383.38385 383.37329 383.37436 383.37042 383.36688 383.36987 383.37732 383.3754 383.37036 383.3844 383.37885 383.36292 383.35641 383.3714 383.35736 383.38037 383.39835 383.39679 383.41785 383.44635 383.46832 383.48334 383.48935 383.49829 383.52679 383.53979 383.54379 383.56628 383.58228 383.60327 383.6188 383.64282 383.65729 383.68231 383.6958 383.71979 383.74231 383.77481 383.7998 383.8273 383.85431 383.8793 383.91879 383.94781 383.96631 383.99878 384.0368 384.07178 384.11075 384.1618 384.20169 384.23822 384.28021 384.3172 384.3472 384.3822 384.42719 384.4527 384.4967 384.52271 384.5657 384.60468 384.6362 384.67169 384.71118 384.73718 384.77319 384.81372 384.8472 384.8757 384.9097 384.93164 384.94366 384.99265 385.02612 385.06012 385.09311 385.1181 385.13959 385.17661 385.2016 385.2301 385.27661 385.32257 385.3396 385.3801 385.4176 385.46259 385.53009 385.57458 385.61905 385.68155 385.69708 385.75848 385.83655 385.91406 385.98602 386.05798 386.125 386.21149 386.327 386.40698 386.50845 386.63345 386.7399 386.86041 386.9949 387.13538 387.27588 387.41379 387.56479 387.72479 387.86432 388.01782 388.16776 388.33228 388.46671 388.6362 388.80768 388.96613 389.13165 389.28113 389.4256 389.5701 389.72504 389.89349 390.0585 390.18051 390.32947 390.51346 390.65796 390.80139 390.94843 391.07037 391.20941 391.35034 391.47086 391.6073 391.73682 391.85229 391.97131 392.07373 392.15118 392.24271 392.33868 392.39569 392.47269 392.54221 392.60471 392.65369 392.6907 392.72821 392.7652 392.79269 392.80463 392.83118 392.84116 392.85419 392.86469 392.87018 392.87866 392.89014 392.88721 392.88971 392.88116 392.87115 392.86215 392.87115 392.87317 392.84863 392.84314 392.82568 392.81064 392.80371 392.7962 392.7897 392.7782 392.75519 392.7467 392.7312 392.71271 392.7012 392.67572 392.65918 392.6492 392.62769 392.60071 392.58771 392.56372 392.53918 392.5242 392.5022 392.48621 392.4657 392.4317 392.4137 392.3967 392.38919 392.38171 392.36719 392.34821 392.33569 392.32568 392.31769 392.29321 392.2782 392.26871 392.24771 392.22919 392.21222 392.19373 392.1767 392.17517 392.1687 392.14972 392.14722 392.14221 392.1217 392.11871 392.11121 392.1062 392.0972 392.08719 392.0752 392.07269 392.07068 392.06177 392.06671 392.06171 392.0517 392.05219 392.05573 392.05121 392.05219 392.0607 392.05469 392.05518 392.05621 392.05771 392.05621 392.04871 392.06421 392.06268 392.04919 392.0267 392.0332 392.03223 392.03119 392.04272 392.04773 392.06421 392.06821 392.0712 392.0632 392.0752 392.06519 392.0647 392.0607 392.05969 392.04822 392.04269 392.0322 392.01617 392.0097 392.00922 392.0127 392.01422 392.0137 392.00818 392.00018 392.01569 392.0257 392.0322 392.02069 392.0192 392.03119 392.03619 392.0437 392.0322 392.0162 392.02679 392.02338 392.0159 392.00641 391.9989 391.99841 391.99438 391.97189 391.96942 392.00592 392.01392 392.0199 391.99988 392.02393 392.0394 392.04541 392.04889 392.0379 392.04541 392.05792 392.0629 392.0769 392.09491 392.10583 392.1084 392.12491
383.90131 383.91278 383.91132 383.9173 383.9238 383.92828 383.93982 383.94482 383.94781 383.9433 383.95279 383.96429 383.9693 383.98328 383.99683 383.99579 384.00079 384.0108 384.0043 384.01178 384.01929 384.02533 384.03131 384.03479 384.0293 384.02228 384.01929 384.0123 384.0098 384.00931 383.99231 383.97729 383.96829 383.95129 383.9368 383.9303 383.91931 383.8963 383.88181 383.85028 383.84131 383.82779 383.80029 383.77228 383.74731 383.73029 383.71729 383.69128 383.67081 383.65332 383.64282 383.62378 383.60236 383.58084 383.56183 383.54584 383.52533 383.4989 383.47491 383.46036 383.45435 383.43939 383.42731 383.41086 383.3974 383.3959 383.41742 383.40689 383.39481 383.3909 383.3924 383.38535 383.39288 383.39786 383.3989 383.40338 383.39734 383.38989 383.3869 383.38336 383.39441 383.3884 383.4184 383.41638 383.41736 383.41736 383.45734 383.4928 383.5108 383.51678 383.53079 383.55481 383.56931 383.5723 383.58032 383.60132 383.62979 383.6373 383.6553 383.67682 383.68781 383.7113 383.74078 383.7583 383.78281 383.80029 383.83081 383.86481 383.89331 383.9173 383.95929 383.98682 384.00031 384.03979 384.0798 384.12482 384.16779 384.20721 384.23822 384.2702 384.30969 384.3327 384.37268 384.41119 384.44269 384.4772 384.51172 384.5462 384.5752 384.61719 384.6557 384.6897 384.71472 384.73419 384.77771 384.8042 384.8317 384.8652 384.88269 384.90164 384.93768 384.97614 384.9946 385.0246 385.0611 385.09009 385.11716 385.13959 385.16309 385.21509 385.2406 385.2851 385.3071 385.34558 385.38959 385.45209 385.4986 385.54559 385.59961 385.6496 385.68555 385.75861 385.81006 385.88901 385.95749 386.01349 386.11249 386.2135 386.30499 386.40253 386.51801 386.62646 386.73441 386.87039 387.01639 387.1499 387.28784 387.43979 387.59082 387.73132 387.87781 388.04828 388.19733 388.34869 388.5047 388.66272 388.8277 388.99268 389.1586 389.3031 389.44012 389.60211 389.7655 389.9115 390.05551 390.21301 390.37701 390.52649 390.67194 390.8204 390.9534 391.08691 391.22089 391.36389 391.48431 391.60229 391.72479 391.8483 391.95178 392.04974 392.13376 392.2157 392.28473 392.3667 392.43069 392.4902 392.54919 392.5892 392.6192 392.66119 392.69171 392.7117 392.72971 392.74121 392.75519 392.77069 392.77319 392.78369 392.7887 392.79919 392.79819 392.80121 392.79071 392.78717 392.78619 392.78571 392.77121 392.75671 392.7392 392.72821 392.73071 392.71722 392.71069 392.6882 392.67371 392.66772 392.65222 392.6322 392.62421 392.5972 392.5777 392.56567 392.54572 392.52222 392.50372 392.48071 392.46118 392.4512 392.42621 392.40421 392.3862 392.35571 392.3342 392.31671 392.3042 392.30621 392.29721 392.27722 392.26672 392.25519 392.24271 392.2287 392.21368 392.1972 392.17969 392.1622 392.14069 392.1297 392.1127 392.1037 392.09723 392.09174 392.08221 392.08319 392.0657 392.05768 392.04626 392.03827 392.03473 392.02124 392.01624 392.01071 392.00269 391.99829 392.00317 392.00174 391.99774 391.99271 391.99179 391.99219 391.99677 392.00018 392.00226 392.00369 391.99771 392.00073 392.00323 391.99719 392.00925 392.00519 392.0047 391.97876 391.95874 391.97577 391.97769 391.9917 391.99872 392.01019 392.01575 392.02472 392.04218 392.03522 392.03772 392.02368 392.02472 392.0192 392.00821 391.99072 391.98822 391.9747 391.97571 391.97168 391.9722 391.97321 391.97321 391.96521 391.96671 391.97571 391.97369 391.97772 391.9787 391.98822 391.98718 391.99121 391.9967 391.98572 391.96921 391.98279 391.98889 391.98489 391.9794 391.9704 391.9729 391.95691 391.95441 391.95038 391.9599 391.97241 391.97491 391.96191 391.99438 392.01041 392.02142 392.02588 392.02539 392.02789 392.03888 392.0549 392.05939 392.06989 392.0874 392.0979 392.1084
383.8923 383.89679 383.9043 383.90778 383.90979 383.91479 383.92279 383.9288 383.93481 383.93579 383.94128 383.95081 383.9563 383.96381 383.97931 383.9823 383.98682 383.99481 383.99231 383.99429 384.00479 384.00677 384.01379 384.01581 384.01129 384.01181 384.00732 384.00031 383.99329 383.98831 383.9783 383.96478 383.95581 383.94531 383.9353 383.92682 383.9133 383.8938 383.87781 383.85028 383.8273 383.8183 383.7973 383.7713 383.75479 383.73929 383.7258 383.70331 383.6828 383.66382 383.6528 383.63181 383.6113 383.58978 383.57779 383.55634 383.53931 383.52032 383.49835 383.48285 383.47586 383.46591 383.44189 383.42883 383.41739 383.41388 383.41992 383.41891 383.4104 383.4039 383.40485 383.4079 383.4129 383.41583 383.42584 383.43185 383.41492 383.39941 383.4039 383.40491 383.4064 383.41339 383.42542 383.44339 383.45935 383.45129 383.46881 383.50635 383.52728 383.53534 383.5513 383.57431 383.59332 383.5968 383.6113 383.62131 383.6488 383.66779 383.67529 383.69531 383.7048 383.7233 383.75232 383.76981 383.78281 383.79382 383.8233 383.8613 383.9093 383.92731 383.96478 384.0033 384.02081 384.03979 384.07031 384.12128 384.1713 384.20779 384.23474 384.26321 384.29471 384.3237 384.3497 384.38422 384.42169 384.45419 384.49121 384.53119 384.55322 384.59473 384.63422 384.66571 384.69269 384.70819 384.7352 384.76868 384.7872 384.81622 384.84869 384.8732 384.89819 384.92218 384.94864 384.98016 385.00415 385.04166 385.0701 385.08173 385.09717 385.1391 385.17511 385.20508 385.25259 385.27661 385.31561 385.3721 385.42459 385.47711 385.5206 385.56061 385.61661 385.67911 385.73212 385.78607 385.86053 385.9325 386.01898 386.11047 386.18701 386.29102 386.39951 386.51349 386.62646 386.7424 386.88589 387.02191 387.1604 387.30835 387.46429 387.5853 387.72778 387.9158 388.07379 388.22525 388.37769 388.5322 388.69519 388.8652 389.02664 389.1666 389.31909 389.4801 389.64362 389.78406 389.93152 390.09698 390.24451 390.39349 390.53949 390.68494 390.82642 390.96091 391.0979 391.23639 391.36935 391.4888 391.5993 391.72382 391.82678 391.9248 392.01678 392.11081 392.18732 392.25623 392.31824 392.37726 392.4357 392.4827 392.51419 392.54468 392.58569 392.60968 392.6282 392.6402 392.65668 392.66571 392.67371 392.6897 392.7027 392.70569 392.71118 392.71469 392.71271 392.70569 392.7077 392.69568 392.6817 392.66669 392.6597 392.64868 392.64618 392.64221 392.62921 392.6142 392.58569 392.5802 392.56873 392.5542 392.53769 392.51669 392.4982 392.48019 392.46417 392.44421 392.42719 392.4082 392.39069 392.37021 392.34869 392.32422 392.30371 392.28171 392.2637 392.24469 392.23221 392.2312 392.2247 392.2027 392.19818 392.18719 392.16675 392.15521 392.14618 392.14224 392.11121 392.10071 392.08276 392.06226 392.0502 392.03876 392.03479 392.02475 392.02029 392.01624 392.01471 392.00519 391.99323 391.99023 391.98425 391.96332 391.95477 391.95175 391.94574 391.94229 391.93823 391.94025 391.93878 391.93979 391.93475 391.93225 391.93875 391.94629 391.9483 391.95679 391.95325 391.9502 391.95279 391.95325 391.95728 391.95279 391.95123 391.94727 391.91681 391.91028 391.93427 391.9487 391.95923 391.97375 391.97681 391.97824 391.98627 391.98676 391.9917 391.9837 391.96774 391.96625 391.95575 391.94977 391.94171 391.93921 391.9357 391.93268 391.9317 391.93372 391.93469 391.9357 391.93021 391.9342 391.93774 391.93875 391.93875 391.94623 391.95422 391.95221 391.93219 391.92572 391.94519 391.94531 391.9519 391.95441 391.94739 391.9444 391.9389 391.93591 391.93042 391.93341 391.93188 391.93439 391.9364 391.9429 391.9574 391.97241 391.99292 392.00391 392.0079 392.00842 392.0159 392.03339 392.0524 392.06039 392.0809 392.09241 392.10388
383.88177 383.88879 383.89279 383.8963 383.89581 383.90833 383.9158 383.91632 383.91779 383.92029 383.9223 383.93381 383.94431 383.95032 383.9603 383.96881 383.97528 383.9838 383.9848 383.98529 383.98981 383.99179 383.99878 383.99329 383.9978 383.99683 383.9913 383.9873 383.9848 383.97229 383.96228 383.95331 383.94629 383.93781 383.92529 383.91632 383.9053 383.89178 383.8768 383.85278 383.83331 383.8143 383.79028 383.76678 383.74829 383.74231 383.72778 383.7088 383.69281 383.6763 383.65729 383.6358 383.61481 383.60083 383.58386 383.56485 383.55585 383.53687 383.51984 383.4939 383.48941 383.47641 383.45642 383.44189 383.43039 383.4339 383.44342 383.4324 383.41992 383.41989 383.42041 383.42639 383.4274 383.43039 383.44336 383.44736 383.43042 383.4404 383.43289 383.43289 383.4509 383.4494 383.4494 383.45483 383.47083 383.47534 383.49231 383.52679 383.5379 383.54584 383.5618 383.58881 383.6048 383.6153 383.63531 383.65228 383.6618 383.6828 383.70081 383.71179 383.71832 383.74182 383.76379 383.78131 383.7988 383.81879 383.84131 383.8768 383.91431 383.93878 383.96979 383.9968 384.0213 384.05481 384.0838 384.11331 384.15582 384.19379 384.22479 384.25372 384.26672 384.29773 384.33569 384.36569 384.3967 384.4267 384.4592 384.5047 384.53223 384.55621 384.5957 384.62567 384.66071 384.67322 384.70721 384.7312 384.75018 384.77368 384.7962 384.82471 384.85419 384.88171 384.9137 384.93518 384.9657 384.98718 385.01172 385.02521 385.05072 385.09265 385.12408 385.14215 385.17966 385.21912 385.2601 385.3121 385.35107 385.40359 385.43762 385.49011 385.54361 385.60159 385.64612 385.70313 385.77356 385.83801 385.923 386.008 386.09149 386.18701 386.28052 386.392 386.52295 386.64191 386.76239 386.8959 387.03442 387.16882 387.31982 387.44733 387.61029 387.77728 387.94031 388.0878 388.24274 388.40118 388.5647 388.73669 388.89719 389.03769 389.18564 389.34912 389.5126 389.66309 389.80505 389.9635 390.11951 390.27301 390.41251 390.55695 390.7034 390.8414 390.9794 391.11792 391.2424 391.3689 391.48886 391.60181 391.70331 391.7998 391.90079 391.99329 392.0733 392.1413 392.2038 392.26526 392.32324 392.37274 392.40521 392.4382 392.47418 392.50421 392.52271 392.54022 392.5582 392.57019 392.5737 392.59619 392.60919 392.6272 392.63269 392.62869 392.62469 392.6217 392.6217 392.6077 392.59119 392.57568 392.57269 392.57068 392.56671 392.55719 392.54822 392.53571 392.51569 392.5022 392.49069 392.47717 392.46118 392.44019 392.42719 392.40869 392.3877 392.3732 392.35022 392.32819 392.31268 392.29221 392.26675 392.25171 392.23022 392.20972 392.1987 392.18219 392.17175 392.16574 392.14874 392.13525 392.13074 392.1142 392.09576 392.08777 392.08679 392.07275 392.04721 392.02972 392.01175 391.99731 391.9888 391.9783 391.97131 391.96631 391.9603 391.9473 391.94379 391.9393 391.93179 391.93274 391.92432 391.9093 391.9003 391.90082 391.89532 391.88629 391.8833 391.88531 391.8848 391.88782 391.8848 391.88275 391.88776 391.89331 391.90082 391.9093 391.90082 391.90479 391.9093 391.90179 391.89731 391.8978 391.88229 391.89178 391.8898 391.8858 391.89478 391.90671 391.91876 391.93079 391.94025 391.9567 391.96274 391.95679 391.96176 391.94525 391.9292 391.91876 391.9093 391.90475 391.9007 391.9007 391.89722 391.88675 391.89124 391.89423 391.89325 391.89624 391.89777 391.89975 391.90424 391.89819 391.90021 391.91571 391.91681 391.91125 391.89221 391.90671 391.91721 391.92181 391.91589 391.9184 391.92188 391.9209 391.91888 391.9064 391.91138 391.9119 391.90939 391.91089 391.9194 391.9274 391.93289 391.94189 391.95538 391.9689 391.97839 391.98889 392.00189 392.01788 392.0314 392.05591 392.07639 392.09088 392.09741
383.86877 383.8808 383.8848 383.88031 383.8913 383.90381 383.89981 383.90082 383.90228 383.9053 383.91028 383.92181 383.93079 383.9368 383.94531 383.95581 383.96228 383.9733 383.9758 383.97629 383.9823 383.98431 383.98279 383.98331 383.98779 383.97931 383.98129 383.97729 383.9718 383.95929 383.95428 383.9458 383.93881 383.92432 383.91528 383.90631 383.89929 383.88428 383.86929 383.85229 383.83279 383.8103 383.7908 383.7673 383.75281 383.75031 383.73581 383.72083 383.7048 383.68683 383.66833 383.64685 383.6243 383.60736 383.59033 383.57642 383.56738 383.55188 383.53491 383.51489 383.4964 383.48834 383.46835 383.45789 383.4469 383.45041 383.4469 383.43591 383.43988 383.43988 383.4404 383.44238 383.44238 383.44537 383.4614 383.46539 383.46591 383.46838 383.46088 383.45789 383.4574 383.4559 383.46741 383.47284 383.49036 383.50739 383.52435 383.53937 383.55234 383.5603 383.57678 383.59384 383.60986 383.62628 383.6463 383.66629 383.6738 383.69482 383.7113 383.7233 383.7298 383.7493 383.7713 383.79929 383.81628 383.8363 383.8638 383.88879 383.9263 383.9473 383.96729 383.99429 384.02832 384.06183 384.08533 384.09979 384.1423 384.17932 384.1983 384.22723 384.24976 384.28076 384.31924 384.3392 384.37021 384.40271 384.4252 384.4707 384.50873 384.53271 384.55569 384.5867 384.6217 384.63269 384.66418 384.6882 384.71271 384.7327 384.75519 384.78168 384.81122 384.84369 384.87268 384.8942 384.91968 384.94568 384.97021 384.98621 385.01172 385.03119 385.0686 385.08667 385.12515 385.16718 385.20816 385.24213 385.2811 385.3316 385.37262 385.42511 385.47162 385.52359 385.56812 385.62512 385.6951 385.75955 385.82758 385.91254 386.0025 386.08252 386.17603 386.28101 386.39999 386.51895 386.6449 386.77838 386.9079 387.04437 387.19537 387.33789 387.4863 387.65329 387.82178 387.9628 388.11774 388.2702 388.43372 388.5997 388.76318 388.90369 389.05865 389.21661 389.3801 389.4971 389.63904 389.8335 389.992 390.14551 390.28802 390.43399 390.58044 390.71588 390.85388 390.99539 391.1189 391.24542 391.36792 391.48035 391.58185 391.6843 391.77979 391.87231 391.9563 392.02429 392.09229 392.1568 392.21478 392.26373 392.30371 392.3367 392.37427 392.40424 392.42371 392.4382 392.45618 392.47021 392.47321 392.4957 392.5152 392.5332 392.55219 392.5387 392.5347 392.5397 392.53717 392.52319 392.50421 392.4917 392.48871 392.48969 392.48572 392.4787 392.46869 392.45618 392.44269 392.42419 392.41269 392.3992 392.38321 392.36322 392.34918 392.33069 392.31821 392.29126 392.26825 392.24719 392.23169 392.21719 392.18726 392.17218 392.16223 392.13519 392.12421 392.11877 392.0943 392.08832 392.0838 392.07031 392.06879 392.05426 392.03583 392.0188 392.0083 391.99426 391.97775 391.96027 391.94574 391.9278 391.91931 391.91479 391.9133 391.90829 391.89429 391.8783 391.87482 391.88031 391.8728 391.86182 391.86481 391.84979 391.84729 391.8508 391.84531 391.83929 391.8363 391.83279 391.8353 391.83832 391.84082 391.83832 391.84332 391.84781 391.85529 391.85028 391.84778 391.85181 391.85828 391.8573 391.85278 391.83728 391.8378 391.84729 391.8428 391.83881 391.84833 391.86377 391.87579 391.88031 391.9248 391.94122 391.93823 391.93231 391.92526 391.90582 391.88977 391.86774 391.85883 391.85425 391.85474 391.85474 391.85675 391.85327 391.85776 391.85025 391.85776 391.86075 391.85577 391.85825 391.86273 391.87375 391.87573 391.88123 391.87823 391.87268 391.87921 391.87976 391.89026 391.88879 391.8829 391.88739 391.89539 391.89441 391.89441 391.88092 391.88589 391.8829 391.89539 391.89691 391.90942 391.91742 391.91791 391.9234 391.93689 391.93988 391.9559 391.9664 391.9859 392.00189 392.02591 392.05042 392.07089 392.08087 392.0929
383.85779 383.8703 383.87628 383.8768 383.8858 383.89178 383.89032 383.8898 383.8923 383.89581 383.90228 383.90881 383.91779 383.92529 383.93182 383.93982 383.94781 383.9523 383.9603 383.96179 383.9678 383.97333 383.97479 383.97632 383.97479 383.96979 383.96579 383.96329 383.96381 383.95529 383.9483 383.9393 383.92331 383.9093 383.89929 383.8963 383.8848 383.87378 383.86279 383.84579 383.8273 383.80679 383.78882 383.77179 383.76031 383.75031 383.7438 383.72882 383.70728 383.69733 383.68289 383.65735 383.63086 383.61786 383.60938 383.60193 383.5849 383.56488 383.54941 383.53192 383.5174 383.50183 383.47791 383.46991 383.46591 383.46191 383.4584 383.45538 383.45691 383.45789 383.45789 383.4614 383.45889 383.4679 383.47491 383.47839 383.46991 383.47137 383.46689 383.47241 383.4704 383.4744 383.48386 383.50385 383.5184 383.52991 383.54535 383.55634 383.57184 383.58429 383.59631 383.60883 383.62036 383.63678 383.65582 383.67328 383.68781 383.70129 383.71429 383.7233 383.7438 383.76428 383.78778 383.8158 383.8313 383.8558 383.88431 383.90881 383.9278 383.94629 383.96777 383.99078 384.02481 384.06128 384.08582 384.09729 384.13281 384.16028 384.1853 384.2038 384.22632 384.2608 384.29724 384.32568 384.3457 384.38019 384.4082 384.43768 384.46619 384.49872 384.52618 384.55719 384.58221 384.59521 384.61371 384.64221 384.6687 384.69119 384.7117 384.73822 384.77771 384.80469 384.8212 384.84167 384.87219 384.90521 384.9187 384.9382 384.95721 384.98169 385.01367 385.05219 385.08069 385.11121 385.1546 385.1756 385.2186 385.2771 385.31909 385.35461 385.39362 385.44809 385.4931 385.5451 385.61261 385.68262 385.75061 385.82257 385.91251 385.99301 386.06049 386.159 386.29449 386.40552 386.53052 386.66095 386.7944 386.93488 387.07541 387.2149 387.36786 387.51834 387.68628 387.84479 387.9888 388.14124 388.29376 388.4552 388.62518 388.77319 388.9342 389.09863 389.25061 389.36761 389.5321 389.69562 389.86804 390.01154 390.16299 390.31097 390.45844 390.59393 390.73245 390.87592 391.00342 391.1329 391.2384 391.35291 391.46136 391.57031 391.66479 391.75931 391.84332 391.91132 391.98029 392.0473 392.10379 392.1568 392.19925 392.24127 392.27319 392.3017 392.32477 392.33826 392.36072 392.37924 392.38324 392.40369 392.4122 392.43372 392.45419 392.4502 392.4437 392.43768 392.44067 392.43469 392.42468 392.4137 392.40421 392.40521 392.41071 392.40222 392.3887 392.37921 392.35669 392.3392 392.32419 392.31122 392.29773 392.28671 392.27319 392.25925 392.24426 392.21777 392.19818 392.18073 392.16275 392.14331 392.11874 392.10278 392.09131 392.06677 392.05933 392.03931 392.02429 392.01981 392.01532 392.0108 391.99731 391.98383 391.97131 391.95178 391.93781 391.9238 391.91028 391.89929 391.8858 391.86932 391.86578 391.85629 391.85181 391.8403 391.8273 391.81479 391.81879 391.82431 391.81879 391.80231 391.79529 391.79581 391.80029 391.80029 391.79831 391.7923 391.78632 391.78027 391.78131 391.7858 391.7843 391.78931 391.79779 391.80029 391.80981 391.7963 391.7883 391.79828 391.7933 391.8038 391.7843 391.78281 391.79382 391.7973 391.79279 391.78729 391.78979 391.8063 391.80081 391.81079 391.8588 391.89331 391.8913 391.87878 391.87128 391.85028 391.83429 391.82281 391.80933 391.80579 391.8103 391.82181 391.8168 391.81482 391.81625 391.81927 391.82126 391.82526 391.81976 391.81879 391.81329 391.82428 391.8443 391.84979 391.84576 391.84781 391.85883 391.86081 391.8623 391.85385 391.8544 391.85638 391.86243 391.86789 391.86987 391.86188 391.8674 391.8649 391.86987 391.89038 391.90289 391.9064 391.90939 391.9169 391.91989 391.9314 391.94141 391.9494 391.9689 391.99042 392.01392 392.03888 392.0614 392.0759 392.08789
383.8468 383.8573 383.8613 383.86829 383.88031 383.87927 383.8793 383.88483 383.88428 383.88879 383.89331 383.89929 383.90881 383.91382 383.92029 383.92682 383.93179 383.9393 383.94031 383.94531 383.95181 383.95529 383.95581 383.9653 383.95981 383.95581 383.9498 383.94681 383.94531 383.94232 383.93628 383.92331 383.91632 383.89929 383.89178 383.88531 383.87128 383.8623 383.84979 383.83881 383.82431 383.80328 383.78632 383.76929 383.7598 383.75629 383.7438 383.72681 383.70129 383.70135 383.69733 383.66434 383.64035 383.62579 383.61935 383.60785 383.58881 383.57343 383.56042 383.54791 383.5394 383.51489 383.49292 383.49438 383.48938 383.4859 383.48389 383.47742 383.47589 383.47491 383.47891 383.4794 383.48441 383.48441 383.49042 383.4939 383.48438 383.4809 383.4874 383.49292 383.49591 383.50235 383.50836 383.52637 383.54083 383.55539 383.56036 383.5784 383.59235 383.60187 383.61487 383.62039 383.63928 383.65985 383.6738 383.69031 383.69931 383.7128 383.71979 383.7388 383.7558 383.77332 383.80231 383.82379 383.83978 383.85431 383.88379 383.9118 383.9288 383.94177 383.96381 383.98779 384.01532 384.0463 384.06732 384.09131 384.1358 384.15228 384.16681 384.1853 384.21631 384.24329 384.27225 384.29776 384.32825 384.36127 384.38318 384.40118 384.4317 384.4617 384.49271 384.5192 384.54269 384.56018 384.5802 384.60718 384.6347 384.65671 384.67023 384.69421 384.7262 384.75269 384.77271 384.79471 384.82471 384.8522 384.87518 384.89221 384.91418 384.9422 384.96771 385.00369 385.03021 385.07367 385.10168 385.12714 385.17059 385.22211 385.2511 385.27859 385.31909 385.38208 385.42761 385.4816 385.53809 385.6026 385.66162 385.73212 385.82104 385.90503 385.97806 386.09149 386.1915 386.30301 386.427 386.54944 386.67944 386.80896 386.94891 387.08588 387.23792 387.39185 387.56287 387.71332 387.8573 388.02582 388.17126 388.34076 388.49719 388.65619 388.82269 388.96967 389.12817 389.26917 389.4296 389.5896 389.74762 389.89755 390.04456 390.1955 390.34198 390.47302 390.61096 390.75293 390.8934 391.0119 391.12341 391.2319 391.34839 391.45184 391.55185 391.65082 391.73181 391.80231 391.8718 391.93781 391.9953 392.04831 392.0903 392.13232 392.16675 392.19733 392.2218 392.24677 392.26373 392.27924 392.29425 392.30176 392.30975 392.32925 392.35574 392.35925 392.35223 392.34619 392.35168 392.34421 392.33868 392.32675 392.32269 392.3287 392.33069 392.32071 392.30426 392.29721 392.27869 392.26474 392.25174 392.24075 392.22571 392.21625 392.1998 392.18774 392.1673 392.14124 392.1228 392.10776 392.09424 392.07928 392.05328 392.04129 392.02081 392.00781 391.99179 391.98029 391.9523 391.9548 391.9563 391.94031 391.9133 391.91681 391.90332 391.88181 391.8768 391.8638 391.84631 391.83881 391.8248 391.8168 391.8038 391.7988 391.78931 391.78329 391.76727 391.76178 391.76782 391.77081 391.7713 391.75482 391.75128 391.74878 391.74631 391.7543 391.7438 391.73831 391.72781 391.72131 391.7258 391.73181 391.73331 391.7468 391.75079 391.75681 391.74631 391.74329 391.75677 391.7608 391.75031 391.7468 391.73828 391.74631 391.7468 391.74631 391.74078 391.73077 391.7363 391.73029 391.74982 391.75729 391.7908 391.76581 391.7933 391.8013 391.78632 391.79028 391.78479 391.77631 391.77231 391.76782 391.7738 391.76981 391.77081 391.77582 391.77478 391.7818 391.79132 391.78931 391.78528 391.78632 391.78281 391.80328 391.81927 391.8168 391.81931 391.8223 391.83481 391.8353 391.83228 391.82635 391.82288 391.83289 391.83838 391.84641 391.84241 391.8429 391.85242 391.8519 391.8624 391.8714 391.88391 391.8844 391.8909 391.90192 391.90839 391.92291 391.93439 391.9444 391.94839 391.97391 392.0054 392.0369 392.0524 392.07089 392.0954
383.83582 383.84882 383.8548 383.86078 383.8663 383.8703 383.8718 383.87381 383.8768 383.88129 383.88483 383.88831 383.8978 383.89581 383.90332 383.90881 383.91931 383.92029 383.93079 383.93179 383.93481 383.94281 383.94229 383.9498 383.9498 383.9353 383.9368 383.93381 383.92981 383.92932 383.92181 383.91479 383.9053 383.89279 383.88281 383.87531 383.86429 383.84778 383.84381 383.8298 383.81183 383.8028 383.78134 383.76831 383.76379 383.75482 383.73831 383.72479 383.71582 383.7113 383.70135 383.67236 383.65186 383.63879 383.62488 383.61438 383.59979 383.58441 383.57141 383.56439 383.55341 383.53241 383.5159 383.51089 383.5029 383.50238 383.50342 383.49191 383.49188 383.49341 383.49292 383.49792 383.49939 383.49689 383.50092 383.5069 383.50641 383.5054 383.51392 383.50989 383.5144 383.51685 383.5329 383.54688 383.54535 383.55835 383.57336 383.58893 383.60083 383.61636 383.62885 383.64142 383.6568 383.66931 383.68579 383.69531 383.70581 383.71979 383.73328 383.7543 383.76782 383.78479 383.80579 383.82678 383.84329 383.85931 383.88379 383.91528 383.92529 383.94128 383.95831 383.98431 384.00931 384.03632 384.05682 384.0838 384.11578 384.13431 384.15332 384.17181 384.20032 384.22229 384.2428 384.27679 384.29828 384.33575 384.35574 384.37924 384.40668 384.4227 384.45621 384.4852 384.50769 384.5307 384.54669 384.57318 384.59921 384.6152 384.63571 384.65619 384.68817 384.70871 384.73019 384.74969 384.7832 384.81122 384.83319 384.84668 384.8692 384.89621 384.91968 384.95819 384.99518 385.02618 385.05371 385.0737 385.11215 385.15814 385.18811 385.22165 385.26309 385.31262 385.36108 385.4101 385.45758 385.51709 385.58411 385.64508 385.73511 385.8176 385.8996 386 386.09851 386.2005 386.32501 386.43048 386.5585 386.69495 386.8324 386.96887 387.11139 387.26788 387.43988 387.5928 387.74078 387.90829 388.05878 388.21423 388.3732 388.53772 388.6947 388.8577 389.0112 389.17163 389.3226 389.47711 389.63812 389.78162 389.92853 390.07901 390.22351 390.35901 390.49799 390.6185 390.7659 390.9054 391.0239 391.1254 391.23541 391.33643 391.44489 391.54437 391.62878 391.70129 391.7663 391.83728 391.89429 391.9368 391.9823 392.0278 392.06879 392.0993 392.13031 392.15527 392.16528 392.18378 392.1958 392.1998 392.20978 392.23132 392.2598 392.26428 392.26031 392.25977 392.26123 392.26019 392.24774 392.24225 392.24576 392.24326 392.24023 392.22876 392.2218 392.23273 392.21326 392.19281 392.1828 392.16779 392.14026 392.13629 392.12631 392.11029 392.08731 392.06128 392.0513 392.03632 392.0278 392.01428 391.99078 391.9733 391.9563 391.9198 391.9238 391.9223 391.90179 391.8913 391.89032 391.87183 391.85229 391.84979 391.83881 391.82233 391.8158 391.80679 391.7803 391.77332 391.76529 391.75482 391.74579 391.7438 391.7373 391.73331 391.71381 391.7113 391.71082 391.71979 391.72083 391.71582 391.71228 391.69928 391.6958 391.69482 391.69229 391.6908 391.68982 391.67279 391.6868 391.68481 391.68079 391.68628 391.70831 391.7103 391.71082 391.70178 391.6853 391.71179 391.71631 391.7063 391.70529 391.70178 391.70129 391.69629 391.6868 391.6843 391.6763 391.67078 391.70129 391.68979 391.6983 391.6973 391.7243 391.72778 391.72479 391.73581 391.73529 391.74231 391.73581 391.7373 391.7298 391.73132 391.7388 391.73779 391.73828 391.74429 391.75378 391.75928 391.7543 391.7608 391.76981 391.77582 391.7908 391.7933 391.79382 391.80029 391.80231 391.80078 391.8078 391.80734 391.8114 391.8179 391.8244 391.8299 391.8244 391.8204 391.8414 391.8479 391.8519 391.8519 391.87091 391.87891 391.88391 391.89288 391.90491 391.91589 391.92792 391.9299 391.9429 391.97241 392.00641 392.03589 392.0639 392.0784 392.09891
383.83179 383.84082 383.84979 383.85129 383.85278 383.8573 383.8623 383.86081 383.8653 383.87231 383.87531 383.87878 383.8848 383.8833 383.88379 383.89178 383.9003 383.90381 383.9158 383.92081 383.92181 383.92731 383.93231 383.9303 383.9343 383.92432 383.92029 383.92029 383.91827 383.91681 383.9108 383.90381 383.89081 383.87878 383.8743 383.8638 383.85431 383.84329 383.83179 383.82379 383.81329 383.8013 383.77734 383.76285 383.76031 383.75378 383.7338 383.71979 383.70532 383.70734 383.71136 383.68134 383.66235 383.64636 383.63538 383.6214 383.60641 383.59091 383.58441 383.57642 383.56342 383.54889 383.53491 383.52588 383.5159 383.5079 383.50842 383.5119 383.50989 383.51141 383.50787 383.51141 383.51141 383.5079 383.51041 383.5119 383.51489 383.52139 383.5239 383.52191 383.52191 383.53192 383.54742 383.5654 383.55988 383.56586 383.58536 383.60391 383.61334 383.62485 383.64233 383.6564 383.67236 383.68231 383.68335 383.69635 383.70981 383.72931 383.7493 383.76031 383.77979 383.7963 383.81281 383.83231 383.84579 383.86279 383.88782 383.91379 383.92929 383.94379 383.9563 383.97681 384.00531 384.02631 384.04633 384.07831 384.0968 384.1138 384.13678 384.16132 384.18481 384.20178 384.22479 384.25281 384.28583 384.31573 384.33832 384.35629 384.38724 384.40771 384.42371 384.45068 384.47571 384.49319 384.5162 384.53571 384.56021 384.58069 384.60571 384.63071 384.6517 384.6727 384.6962 384.71069 384.74219 384.76871 384.7962 384.81122 384.8317 384.85571 384.88171 384.91168 384.95319 384.9827 385.00519 385.0202 385.0582 385.1062 385.13464 385.16614 385.21216 385.25211 385.2951 385.34509 385.3931 385.45111 385.51709 385.57361 385.65509 385.73511 385.81958 385.91406 386.01154 386.10049 386.21649 386.33752 386.45203 386.58896 386.72241 386.85889 386.99841 387.1564 387.32788 387.48236 387.62231 387.7818 387.95129 388.10376 388.26175 388.41769 388.57471 388.74319 388.9017 389.06116 389.21161 389.36011 389.51062 389.61609 389.76105 389.94653 390.1055 390.2435 390.38501 390.508 390.64145 390.78339 390.9169 391.02942 391.1369 391.23691 391.34442 391.44092 391.52637 391.60132 391.66779 391.7348 391.79779 391.83978 391.88531 391.9288 391.97079 392.01178 392.04132 392.0618 392.0748 392.08929 392.10379 392.09979 392.10681 392.13879 392.1633 392.16382 392.1683 392.17081 392.1763 392.1748 392.16431 392.16425 392.15976 392.16031 392.15479 392.1398 392.14081 392.1463 392.14081 392.10828 392.1033 392.08929 392.0658 392.04779 392.04382 392.01981 391.99829 391.98828 391.95779 391.94879 391.9523 391.9393 391.9213 391.90778 391.89429 391.86179 391.84479 391.8548 391.84729 391.83582 391.82281 391.81232 391.8038 391.7933 391.77679 391.7648 391.75531 391.7493 391.7308 391.70831 391.70129 391.69879 391.68781 391.6853 391.6868 391.68231 391.66779 391.66278 391.65979 391.66479 391.6673 391.66278 391.65332 391.66132 391.6543 391.64731 391.6543 391.6503 391.64581 391.63879 391.64679 391.65329 391.63831 391.64081 391.65781 391.67432 391.6683 391.65979 391.63531 391.63229 391.66479 391.65979 391.6593 391.65381 391.65479 391.64331 391.63129 391.6333 391.62982 391.63782 391.63782 391.6398 391.6423 391.6543 391.67578 391.67331 391.67331 391.6778 391.68481 391.69379 391.7023 391.70282 391.6998 391.69928 391.7063 391.69629 391.70679 391.7103 391.7193 391.73029 391.73132 391.7298 391.73981 391.75281 391.76031 391.76978 391.76282 391.76981 391.7738 391.7738 391.78329 391.79034 391.79541 391.80139 391.81296 391.8154 391.81342 391.8074 391.80688 391.82288 391.83539 391.8479 391.8609 391.87189 391.88089 391.88788 391.8989 391.91241 391.92389 391.93491 391.94989 391.97992 392.00989 392.03439 392.0629 392.08591 392.10541
